-14.2227 140.319 -0.0117212 -0.411136 0.911521 0.000246617
-14.1381 140.304 -2.12598 -0.393196 0.918604 -0.0395474
-14.0224 140.261 -4.17992 -0.411625 0.90971 -0.0546964
-13.7259 140.061 -6.22929 -0.379671 0.89683 -0.227035
-12.9627 139.909 -8.10356 -0.364746 0.903596 -0.224665
-12.1171 139.811 -9.94784 -0.347013 0.915184 -0.204987
-11.2104 139.61 -11.748 -0.268107 0.907995 -0.321969
-9.90383 139.382 -13.4416 -0.258705 0.909393 -0.325693
-7.99053 139.51 -14.343 -0.147791 0.924777 -0.350636
-5.90404 139.607 -14.8819 -0.131451 0.922419 -0.363131
-3.83701 139.841 -14.9843 -0.0732942 0.922836 -0.378134
-1.84293 139.948 -14.7718 0.0200095 0.91588 -0.400954
0.099154 140.175 -14.155 0.0361091 0.9121 -0.408288
1.99149 140.332 -13.2921 0.161435 0.887807 -0.430973
3.78951 140.423 -12.4199 0.174076 0.88851 -0.424552
5.65589 140.404 -11.4564 0.256025 0.894702 -0.366003
7.28873 140.324 -10.2523 0.314556 0.904401 -0.288284
8.74892 140.269 -8.74799 0.327443 0.906083 -0.267923
10.1985 140.178 -7.23324 0.326944 0.909013 -0.258457
11.5567 139.994 -5.65583 0.404851 0.903472 -0.140835
12.8462 139.661 -3.90121 0.411839 0.902367 -0.126975
13.1599 139.705 -1.8942 0.421626 0.906371 -0.026451
13.0039 139.798 0.2084 0.419052 0.906557 0.0504993
12.0942 140.01 2.00609 0.406644 0.90491 0.125394
11.7053 140.189 2.00605 0.417726 0.899347 0.129154
11.8535 140.355 -0.0251107 0.41657 0.907635 0.0479151
11.6764 140.383 -2.0883 0.417228 0.908058 -0.0367631
11.1821 140.407 -4.0256 0.420396 0.898292 -0.127818
10.3229 140.504 -5.83849 0.355563 0.913183 -0.196179
9.14177 140.444 -7.62187 0.321631 0.911896 -0.254929
7.63196 140.543 -9.17081 0.321884 0.905846 -0.275381
5.958 140.734 -10.3756 0.295527 0.902563 -0.313121
4.09607 140.902 -11.2675 0.21073 0.884325 -0.416423
2.12627 141.022 -11.8169 0.145731 0.896766 -0.417762
0.113578 141.131 -12.0074 0.0427286 0.911523 -0.409023
-2.07158 141.202 -11.8571 -0.0238958 0.932385 -0.360665
-4.15283 141.222 -11.3264 -0.130854 0.926984 -0.351535
-5.99713 141.277 -10.4677 -0.13341 0.929952 -0.342623
-7.662 141.344 -9.32823 -0.244339 0.920628 -0.304536
-9.23648 141.414 -7.77776 -0.241148 0.927751 -0.284823
-10.436 141.49 -6.14145 -0.380186 0.897079 -0.224918
-11.3308 141.478 -4.3259 -0.376619 0.9164 -0.135532
-11.827 141.407 -2.38205 -0.412732 0.910615 -0.0159989
-12.0255 141.311 -0.259016 -0.40529 0.91415 0.00836156
-11.9104 141.345 1.89948 -0.408787 0.912567 0.00973986
-11.4361 141.421 4.03169 -0.385512 0.91451 0.122326
-10.6047 141.445 5.90187 -0.337792 0.920981 0.19329
-9.51428 141.388 7.5785 -0.300178 0.923525 0.238734
-8.11643 141.321 9.06843 -0.131904 0.923876 0.359179
-6.44737 141.09 10.2377 -0.124151 0.923205 0.363638
-4.64722 140.904 11.1007 -0.032135 0.93048 0.364907
-2.73298 140.71 11.7285 -0.00947848 0.933759 0.357765
-0.734384 140.523 11.9595 0.0841234 0.906763 0.413163
-0.256452 140.332 12.2794 0.0862832 0.905345 0.41582
-2.28412 140.255 12.8396 0.0681382 0.912127 0.404114
-4.39348 140.021 13.3405 -0.0298192 0.925572 0.377396
-6.4146 139.742 13.7798 -0.0711987 0.922928 0.378332
-8.49301 139.705 13.3791 -0.144823 0.929502 0.339194
-10.0666 139.862 12.1465 -0.205983 0.934024 0.291165
-11.4462 139.893 10.6902 -0.306249 0.913876 0.266539
-12.4427 140.064 8.93395 -0.310893 0.914497 0.258881
-13.1909 140.268 6.91767 -0.364748 0.919309 0.145556
-13.579 140.378 4.85572 -0.398015 0.909254 0.121828
-13.906 140.414 2.85505 -0.407976 0.912056 0.0413458
-14.1898 140.325 0.855408 -0.420802 0.907061 0.0129028
-14.2216 140.318 0.196371 -0.416988 0.908873 0.00838204
-18.755 138.12 0.0820939 -0.448322 0.893657 -0.0166472
-18.6884 138.084 -1.98332 -0.418659 0.907479 -0.0344556
-18.5648 138.076 -4.00686 -0.410115 0.911794 -0.0208937
-18.5045 138.029 -6.04299 -0.369899 0.926938 -0.0623264
-18.0655 137.948 -8.00551 -0.323246 0.936814 -0.133759
-17.2393 137.97 -9.8811 -0.311123 0.942098 -0.125093
-16.3859 138.005 -11.7715 -0.295487 0.94582 -0.134216
-15.5721 137.941 -13.6085 -0.280722 0.943127 -0.178065
-14.61 137.834 -15.384 -0.2288 0.952723 -0.199922
-13.1882 137.842 -16.9555 -0.215633 0.953995 -0.208319
-11.5259 137.832 -18.25 -0.122781 0.957779 -0.259305
-9.58097 137.854 -18.7967 -0.0798881 0.951436 -0.297301
-7.56758 137.844 -19.3755 -0.084226 0.949782 -0.301347
-5.61686 137.891 -19.8085 -0.0860584 0.944173 -0.31801
-3.55094 137.952 -19.6587 0.059048 0.937889 -0.341811
-1.51193 137.909 -19.3777 0.0670639 0.932673 -0.354433
0.569531 137.972 -18.8885 0.0718476 0.914873 -0.396848
2.5708 138.049 -18.0467 0.16553 0.896381 -0.411219
4.4748 138.111 -17.1416 0.169761 0.893776 -0.415146
6.27989 138.165 -16.2701 0.175622 0.896876 -0.405914
8.15061 138.188 -15.2922 0.226199 0.903955 -0.362893
9.83175 138.154 -14.1762 0.279424 0.906412 -0.316726
11.2797 138.125 -12.7199 0.31561 0.906108 -0.281706
12.8179 138.093 -11.1664 0.288969 0.916121 -0.277884
14.2144 138.034 -9.61196 0.31408 0.924512 -0.215882
15.6 137.969 -7.9292 0.293967 0.932472 -0.209943
16.9659 137.869 -6.40042 0.280151 0.947596 -0.153551
17.7119 137.815 -4.54552 0.303754 0.950915 -0.0591171
17.8049 137.825 -2.44948 0.314222 0.949347 -0.002069
17.8334 137.813 -0.350184 0.33286 0.94296 0.00545948
17.4864 137.86 1.74613 0.306182 0.950785 0.0474393
16.521 137.939 3.60895 0.302794 0.9391 0.162504
15.3619 138.02 5.45753 0.334367 0.928659 0.160591
14.326 138.047 7.2951 0.331608 0.924689 0.187044
13.2688 138.074 9.01139 0.322503 0.925096 0.200286
11.6259 138.181 10.491 0.276349 0.899432 0.338603
10.0423 138.181 11.7454 0.265714 0.900071 0.345352
8.28693 138.199 13.0303 0.263185 0.900088 0.34724
6.51191 138.253 14.0608 0.220341 0.890929 0.3971
4.6752 138.259 15.0414 0.204549 0.891204 0.404864
2.90614 138.195 15.994 0.163262 0.900675 0.402619
0.994057 138.188 16.6364 0.11617 0.899993 0.420139
-1.04997 138.158 17.2491 0.0910254 0.902877 0.420152
-3.16481 138.077 17.8065 0.0600992 0.917555 0.39304
-5.10193 137.977 18.2952 0.0260952 0.931918 0.36173
-7.15963 137.851 18.746 -0.00605998 0.954382 0.298525
-9.23575 137.804 18.4123 -0.087975 0.958818 0.270054
-10.9943 137.909 17.4033 -0.124987 0.960071 0.250282
-12.5305 137.961 16.1027 -0.215505 0.940347 0.263258
-14.1587 137.932 14.8156 -0.219821 0.943151 0.249288
-15.3891 137.995 13.1855 -0.290916 0.935711 0.199533
-16.4606 137.985 11.3526 -0.315465 0.933787 0.168886
-17.3051 138.041 9.4489 -0.350709 0.922638 0.160444
-17.7517 138.109 7.43939 -0.405636 0.908856 0.0971583
-18.1012 138.161 5.39866 -0.413111 0.905799 0.0941045
-18.4352 138.209 3.35781 -0.420579 0.902904 0.0887539
-18.7423 138.133 1.31496 -0.441051 0.897469 -0.00471872
-18.7582 138.12 0.257466 -0.444856 0.895578 -0.00657253
-7.42824 143.211 0.34123 -0.302826 0.952817 -0.0182905
-7.09351 143.214 2.32913 -0.226225 0.96846 0.104057
-6.21492 143.12 4.14895 -0.17365 0.967038 0.186232
-4.85568 142.956 5.65327 -0.0958289 0.953135 0.286731
-3.0508 142.752 6.7344 -0.0746549 0.932131 0.354341
-1.06 142.548 7.34549 0.018929 0.918443 0.395099
0.975142 142.391 7.29285 0.134137 0.910854 0.390205
2.90437 142.269 6.71551 0.228884 0.902279 0.365374
4.62634 142.173 5.63362 0.288003 0.906265 0.309417
6.13065 142.151 4.03011 0.329771 0.90719 0.261238
7.03651 142.242 2.12024 0.38218 0.911847 0.148567
7.29305 142.317 0.0422194 0.406016 0.913611 0.0215787
7.0349 142.383 -1.97164 0.371169 0.92554 -0.0748965
6.23897 142.428 -3.82914 0.355349 0.921189 -0.158514
4.94605 142.554 -5.41563 0.309185 0.920877 -0.23746
3.29296 142.694 -6.5636 0.24462 0.926887 -0.284679
1.27351 142.88 -7.27693 0.160836 0.938811 -0.304574
-0.781412 143.053 -7.36025 -0.0335187 0.954084 -0.297017
-2.81372 143.036 -6.88665 -0.132429 0.93676 -0.323949
-4.62479 143.099 -5.81636 -0.19557 0.942407 -0.271331
-5.98124 143.145 -4.327 -0.260997 0.944522 -0.199297
-6.95323 143.165 -2.54426 -0.281016 0.95295 -0.112512
-7.40605 143.188 -0.501461 -0.303742 0.951824 -0.041487
-7.42234 143.204 -0.0271002 -0.310421 0.950286 -0.0243935
-7.42585 143.207 0.145718 -0.310422 0.950286 -0.0243629
