-12.2763 139.261 -2.1058 -0.395522 0.91813 -0.0189561
-12.2355 139.258 0.0741772 -0.400584 0.915817 0.0284958
-12.0055 139.265 2.12761 -0.410385 0.910248 0.0550415
-11.6422 139.133 4.27353 -0.342212 0.926132 0.158651
-10.9509 139.034 6.20787 -0.28475 0.939991 0.187963
-9.82476 138.948 7.8808 -0.244055 0.944485 0.219965
-8.63514 138.851 9.55148 -0.233692 0.947042 0.220155
-7.09429 138.834 10.7336 -0.104291 0.945449 0.308624
-5.0158 138.939 11.0763 -0.0984097 0.937068 0.334886
-2.94962 139.119 10.7567 0.0227702 0.928276 0.371194
-2.7476 139.381 10.0907 0.0190206 0.929314 0.368665
-4.65437 139.592 9.36715 -0.126056 0.942136 0.310432
-6.41442 139.686 8.2993 -0.190401 0.936888 0.293238
-7.90341 139.711 6.88317 -0.260025 0.929183 0.26258
-9.10622 139.833 5.18725 -0.281743 0.925259 0.25389
-10.0007 139.941 3.16074 -0.356529 0.920648 0.159041
-10.4514 140.013 1.03072 -0.399598 0.915651 0.0436121
-10.4528 140.057 -0.974468 -0.421287 0.906927 -0.000633454
-10.1025 140.085 -2.95661 -0.344647 0.931382 -0.117242
-9.32525 140.027 -4.83709 -0.283061 0.93836 -0.198219
-8.03612 139.921 -6.63334 -0.257091 0.9308 -0.259839
-6.51947 139.889 -8.07855 -0.193196 0.9365 -0.292648
-4.7739 139.762 -9.22024 -0.124638 0.940448 -0.316265
-2.87131 139.698 -9.96156 -0.0495061 0.938434 -0.341412
-0.866653 139.669 -10.3526 -0.0470515 0.923357 -0.381048
1.13163 139.601 -10.4035 0.0589339 0.921572 -0.383709
3.12259 139.446 -9.99834 0.178929 0.921447 -0.344848
3.95637 139.342 -9.81915 0.199804 0.915439 -0.349351
2.16249 139.272 -10.9141 0.133828 0.91922 -0.370294
0.323242 139.059 -11.9197 0.0792726 0.935287 -0.344896
-1.63331 138.888 -12.524 0.00171104 0.947556 -0.319584
-3.66019 138.775 -12.7292 -0.0520296 0.949905 -0.30804
-5.76442 138.558 -12.6601 -0.107842 0.952515 -0.284753
-7.51462 138.628 -11.7024 -0.152382 0.953131 -0.261383
-9.04852 138.682 -10.3118 -0.225444 0.941868 -0.249096
-10.3625 138.783 -8.68213 -0.225415 0.945286 -0.235844
-11.3506 138.962 -6.89399 -0.286986 0.932301 -0.220121
-12.1306 139.058 -4.97667 -0.327369 0.938688 -0.107924
-12.2687 139.237 -2.86127 -0.371328 0.927523 -0.0426172
-12.2711 139.256 -2.31791 -0.398531 0.916521 -0.0340803
-15.8559 137.794 -2.08735 -0.365947 0.930602 0.00794244
-15.9003 137.787 -4.14075 -0.354873 0.934909 -0.00301246
-15.6431 137.719 -6.26827 -0.307664 0.941113 -0.137711
-14.7378 137.63 -8.14137 -0.277745 0.945357 -0.170591
-13.8509 137.607 -9.99556 -0.24402 0.962845 -0.115692
-12.8665 137.585 -11.7447 -0.179102 0.965553 -0.188024
-11.3068 137.535 -13.197 -0.151677 0.967254 -0.203503
-9.8272 137.503 -14.5676 -0.148437 0.97529 -0.163312
-8.27738 137.47 -15.8323 -0.081668 0.978527 -0.189231
-6.33257 137.489 -16.43 -0.0822787 0.975036 -0.206241
-4.2484 137.59 -16.461 -0.00536036 0.95763 -0.287951
-2.21071 137.634 -16.2872 0.021978 0.954833 -0.29632
-0.214877 137.691 -15.9538 0.0162584 0.945044 -0.326538
1.70003 137.78 -15.274 0.124034 0.938628 -0.321859
3.45928 137.828 -14.3166 0.177002 0.928966 -0.325104
5.35407 137.834 -13.213 0.198017 0.925923 -0.321645
7.10172 137.845 -12.0136 0.237502 0.925863 -0.293718
8.69184 137.844 -10.5936 0.264476 0.919919 -0.289483
10.1707 137.834 -9.22304 0.28449 0.920661 -0.267298
11.3142 137.81 -7.59467 0.342315 0.924582 -0.167238
12.2847 137.761 -5.72516 0.314378 0.935233 -0.162521
13.2925 137.714 -3.77867 0.298969 0.950587 -0.0832404
13.5144 137.71 -1.6605 0.313499 0.949541 -0.00888803
13.444 137.693 0.365252 0.308513 0.949446 0.0580659
12.9057 137.71 2.31638 0.306591 0.947915 0.0863669
11.9571 137.75 4.27981 0.307516 0.938796 0.155216
10.9985 137.758 6.13382 0.325068 0.930551 0.168536
9.87732 137.797 7.80657 0.286102 0.926591 0.244079
8.19656 137.843 9.06586 0.226974 0.921463 0.315208
6.54114 137.838 10.2975 0.225098 0.925614 0.304251
4.83954 137.839 11.462 0.178991 0.924437 0.336716
2.99392 137.817 12.3875 0.143442 0.927952 0.343991
1.13163 137.818 13.1495 0.140614 0.926452 0.349162
-0.859501 137.824 13.8837 0.122829 0.927381 0.353377
-2.89455 137.802 14.5226 0.0502926 0.933345 0.354973
-4.86034 137.708 14.8068 -0.0471911 0.946925 0.317972
-6.88991 137.7 14.4847 -0.0640448 0.950421 0.304301
-8.9375 137.648 14.0775 -0.0898125 0.957047 0.275655
-10.7754 137.626 13.0437 -0.22345 0.950716 0.214964
-11.8941 137.717 11.2538 -0.241751 0.949486 0.200083
-13.1487 137.742 9.52583 -0.275038 0.942596 0.189385
-14.2968 137.738 7.75706 -0.283613 0.948504 0.141035
-15.0091 137.737 5.82562 -0.306793 0.948361 0.0805563
-15.3762 137.748 3.69803 -0.34238 0.938133 0.0517849
-15.648 137.757 1.6758 -0.353034 0.933969 0.0553954
-15.8159 137.791 -0.340847 -0.361601 0.932123 0.0197599
-15.8468 137.795 -1.84481 -0.365947 0.930602 0.00794244
-6.85997 141.403 -1.09871 -0.252913 0.967247 -0.0216336
-6.16072 141.317 -3.05926 -0.259671 0.947718 -0.185478
-4.92313 141.236 -4.73247 -0.234277 0.931277 -0.278583
-3.29602 141.154 -5.98127 -0.133139 0.929039 -0.345196
-1.40606 141.052 -6.66639 -0.0504624 0.934978 -0.351099
0.733193 140.936 -6.83027 0.0782855 0.940818 -0.329633
2.67799 140.824 -6.32459 0.200919 0.941901 -0.269103
4.42361 140.636 -5.20828 0.292142 0.933476 -0.20803
5.76794 140.471 -3.68033 0.332638 0.933617 -0.132272
6.60704 140.351 -1.79621 0.369714 0.927014 -0.0624418
6.76484 140.301 0.198468 0.388986 0.919207 0.0612274
6.38755 140.218 2.17408 0.387994 0.907894 0.158695
5.48513 140.213 3.97828 0.351918 0.910543 0.216831
4.01595 140.282 5.47731 0.280162 0.907082 0.314183
2.13621 140.407 6.49081 0.161069 0.927233 0.338006
-0.0022108 140.517 6.86826 0.0754629 0.92082 0.382518
-2.05893 140.722 6.50513 -0.0272798 0.933647 0.357143
-4.01139 140.938 5.60923 -0.0831033 0.938927 0.33388
-5.54708 141.181 4.12648 -0.162352 0.957009 0.240367
-6.48491 141.278 2.35254 -0.284033 0.952131 0.111321
-6.8869 141.365 0.301698 -0.22459 0.972641 0.0594073
-6.87244 141.405 -0.856817 -0.249563 0.968224 -0.00798928
-6.86332 141.403 -1.03821 -0.252906 0.96725 -0.0216025
