-1.62785 28.8859 -1.16746 -0.562442 0.781083 -0.271236
-1.57087 29.0342 -0.50818 -0.606506 0.793716 0.00795336
-1.43918 29.0604 0.0797878 -0.511309 0.844316 0.160291
-1.17903 29.0272 0.653027 -0.367904 0.889424 0.265534
-0.784567 29.0398 1.10069 -0.237087 0.889191 0.391318
-0.172694 29.1437 1.16449 -0.123425 0.921508 0.368226
0.367769 29.2401 1.05724 0.0425863 0.920887 0.365045
0.954478 29.1691 0.762467 0.220963 0.952312 0.210423
1.52255 29.0591 0.429424 0.376668 0.914397 0.132657
1.90865 28.9002 0.12921 0.568333 0.822332 0.0273503
2.29193 28.6564 -0.251146 0.538414 0.841542 0.0429857
2.64274 28.3765 -0.69315 0.631964 0.771786 -0.0700858
2.85 28.1336 -1.14955 0.658922 0.741627 -0.124518
2.69397 28.1158 -1.66786 0.547256 0.777104 -0.310839
2.43506 28.112 -2.12109 0.548568 0.772429 -0.319895
2.12978 28.0378 -2.53265 0.42784 0.744318 -0.51278
1.7561 27.9068 -2.9472 0.33117 0.730458 -0.596063
1.18236 27.8655 -3.26747 0.183649 0.778808 -0.599776
0.512386 27.9442 -3.34245 0.110742 0.766741 -0.630968
0.00310921 28.0057 -3.30463 -0.0967879 0.716279 -0.690781
-0.639252 28.0619 -3.11769 -0.175734 0.72846 -0.662166
-1.06642 28.1655 -2.80821 -0.27909 0.781042 -0.558643
-1.35651 28.3841 -2.34598 -0.322366 0.774192 -0.544706
-1.55522 28.6725 -1.83203 -0.448577 0.753134 -0.453532
-1.62002 28.8335 -1.33486 -0.562442 0.781083 -0.271236
-4.71864 25.9141 -0.606728 -0.683106 0.729715 -0.0167793
-4.65521 25.9715 -0.106977 -0.695583 0.717305 0.0299053
-4.56904 26.0041 0.427826 -0.692836 0.716369 0.082028
-4.45884 26.0168 1.00875 -0.684797 0.71015 0.163521
-4.31722 26.0108 1.55618 -0.670021 0.712565 0.208141
-4.0986 26.0243 2.09178 -0.632097 0.717028 0.29381
-3.81956 26.038 2.57158 -0.621675 0.673901 0.399222
-3.49605 26.0262 3.04476 -0.535022 0.734508 0.417432
-3.15882 25.9936 3.47715 -0.481224 0.730255 0.484898
-2.70437 25.9685 3.89629 -0.410998 0.71448 0.565417
-2.28552 25.9357 4.19835 -0.300176 0.728131 0.615849
-1.76161 25.9458 4.43926 -0.270522 0.742683 0.612568
-1.11682 25.9972 4.58082 -0.167304 0.72064 0.672821
-0.612071 26.0431 4.59251 -0.0323823 0.727943 0.684872
-0.0692618 26.1179 4.51305 -0.00461596 0.710896 0.702172
0.481961 26.1793 4.38446 0.138461 0.691661 0.708213
1.13627 26.2598 4.13973 0.213583 0.66608 0.714436
1.72868 26.294 3.91015 0.268649 0.655776 0.705539
2.20167 26.2795 3.71052 0.34268 0.66723 0.660938
2.68976 26.2378 3.48221 0.386014 0.676976 0.625974
3.13519 26.1823 3.2461 0.41319 0.67954 0.606166
3.60572 26.1015 2.97644 0.48581 0.683968 0.541679
4.02299 25.9988 2.69118 0.525506 0.698341 0.485525
4.47182 25.8615 2.35777 0.572373 0.70476 0.417206
4.85534 25.7186 2.00125 0.614618 0.704397 0.355063
5.23417 25.5586 1.62253 0.634386 0.728688 0.258008
5.61929 25.3795 1.18515 0.640386 0.740546 0.203093
5.91404 25.2305 0.767827 0.641383 0.746984 0.174383
6.13302 25.1134 0.314078 0.651777 0.753042 0.087341
6.25505 25.0341 -0.183352 0.650844 0.75894 0.0203179
6.27302 25.013 -0.692152 0.634629 0.771529 -0.0428002
6.21423 25.0119 -1.29478 0.643689 0.760215 -0.0879622
6.10065 25.0126 -1.84694 0.624064 0.766014 -0.154164
5.92823 25.0254 -2.32696 0.598474 0.766439 -0.232585
5.6318 25.0608 -2.88417 0.583652 0.747681 -0.316739
5.3365 25.0817 -3.33138 0.554133 0.758525 -0.342746
5.0309 25.0297 -3.85291 0.519517 0.757246 -0.395828
4.69828 24.9412 -4.36882 0.45883 0.759569 -0.460834
4.31575 24.8612 -4.85738 0.42535 0.76191 -0.488354
3.89835 24.8014 -5.29015 0.384075 0.777321 -0.498255
3.43958 24.7128 -5.75192 0.34874 0.772886 -0.53004
3.02847 24.6218 -6.13238 0.311501 0.770533 -0.556099
2.51185 24.6242 -6.38481 0.270981 0.779398 -0.564639
2.00076 24.7002 -6.48268 0.200541 0.775776 -0.597814
1.50563 24.7906 -6.51578 0.158922 0.769582 -0.617936
0.915959 24.8896 -6.52723 0.114334 0.757895 -0.641484
0.384124 24.9483 -6.51932 0.0508796 0.7543 -0.654188
-0.113368 24.9941 -6.49098 -0.020761 0.739717 -0.672557
-0.611166 25.0387 -6.42083 -0.0720677 0.745677 -0.6623
-1.25157 25.0624 -6.2958 -0.139131 0.740006 -0.658052
-1.8752 25.0796 -6.11428 -0.202688 0.756034 -0.621482
-2.5 25.0927 -5.86248 -0.266639 0.733354 -0.625376
-3.07024 25.1259 -5.52553 -0.364461 0.735386 -0.570104
-3.56104 25.1393 -5.13497 -0.438503 0.735897 -0.51566
-3.91748 25.187 -4.72342 -0.482572 0.750152 -0.452102
-4.25089 25.2628 -4.21538 -0.506569 0.759936 -0.407291
-4.50725 25.3967 -3.58713 -0.586713 0.736877 -0.334179
-4.65969 25.528 -2.94143 -0.631391 0.732075 -0.255757
-4.74984 25.6236 -2.39065 -0.655096 0.72994 -0.194521
-4.78199 25.7358 -1.77855 -0.673452 0.723815 -0.15018
-4.77071 25.8242 -1.24586 -0.692178 0.71707 -0.0809195
-4.74161 25.8809 -0.844215 -0.706929 0.706913 -0.0228943
-4.73226 25.8932 -0.7534 -0.693466 0.719488 -0.0319461
