-3.97843 28.0885 -1.7231 -0.657812 0.727172 -0.196226
-3.65676 28.2411 -2.12999 -0.624304 0.722238 -0.297684
-3.31618 28.3795 -2.48139 -0.604176 0.721523 -0.338196
-2.942 28.4878 -2.84399 -0.56593 0.719209 -0.403065
-2.48953 28.5637 -3.22555 -0.476237 0.725792 -0.496264
-2.00459 28.5957 -3.54585 -0.298985 0.776245 -0.555024
-1.51635 28.5626 -3.83038 -0.254865 0.765582 -0.590701
-1.01828 28.5097 -4.09591 -0.234725 0.749776 -0.61866
-0.426821 28.3996 -4.34811 -0.0915723 0.728901 -0.677857
0.0563412 28.2839 -4.511 0.0436929 0.730718 -0.681279
0.578477 28.1017 -4.67081 0.0533314 0.729296 -0.682117
1.10992 27.8694 -4.82884 0.175451 0.722415 -0.66883
1.63554 27.6129 -4.94981 0.242141 0.749614 -0.615992
2.19903 27.3191 -5.05127 0.28899 0.732415 -0.61644
2.66143 27.0662 -5.10912 0.34007 0.732418 -0.589821
2.95711 27.2192 -4.73383 0.373915 0.722813 -0.58068
3.14505 27.4693 -4.30086 0.411587 0.713538 -0.566975
3.33722 27.6739 -3.87104 0.43958 0.732028 -0.520484
3.52928 27.8777 -3.42522 0.462695 0.719294 -0.518199
3.70524 28.0853 -2.91529 0.533972 0.731347 -0.424107
3.86126 28.2371 -2.42043 0.618345 0.71484 -0.326355
4.0134 28.3523 -1.88382 0.65545 0.684286 -0.319589
4.13392 28.4087 -1.20367 0.699119 0.707042 -0.10641
4.15124 28.4745 -0.597417 0.697271 0.713487 -0.0385591
4.07594 28.4829 0.00445237 0.634197 0.762219 0.125655
3.93266 28.4604 0.670415 0.624054 0.762235 0.171752
3.75321 28.4363 1.24008 0.572812 0.772884 0.273013
3.57116 28.3643 1.75673 0.515021 0.788686 0.335748
3.38665 28.2672 2.22258 0.534815 0.744306 0.399976
3.10988 28.1926 2.66014 0.452683 0.760282 0.465886
2.63795 28.4345 2.72832 0.444404 0.773017 0.452151
2.18513 28.6917 2.70073 0.424747 0.784265 0.45211
1.67593 28.9529 2.63972 0.344962 0.76748 0.540276
1.09534 29.2302 2.54213 0.247486 0.807931 0.534494
0.576552 29.4408 2.46816 0.118926 0.888213 0.435642
0.0220333 29.5547 2.31775 -0.017732 0.838717 0.544278
-0.49214 29.6156 2.13365 -0.081333 0.92321 0.37559
-0.947204 29.6391 1.89327 -0.235303 0.895092 0.378739
-1.35601 29.6379 1.60453 -0.308923 0.865372 0.394586
-1.77071 29.6079 1.27094 -0.421436 0.830343 0.364587
-2.23289 29.5138 0.85596 -0.462954 0.859018 0.207534
-2.57474 29.3577 0.459796 -0.522885 0.835176 0.170505
-2.93463 29.1897 0.0406137 -0.585296 0.809427 0.0444285
-3.2158 28.9763 -0.336627 -0.623331 0.781232 -0.033684
-3.46705 28.7397 -0.69878 -0.647827 0.7578 -0.0776299
-3.75363 28.4569 -1.10761 -0.678678 0.724114 -0.107434
-3.95596 28.1711 -1.48571 -0.681242 0.709803 -0.179121
-3.97194 28.1078 -1.67347 -0.669195 0.718531 -0.188764
-7.43885 24.1929 3.96233 -0.544556 0.783273 0.299902
-7.06303 24.3146 4.27474 -0.51154 0.776508 0.367911
-6.56369 24.4553 4.65307 -0.495808 0.775997 0.389875
-6.18019 24.5218 4.97509 -0.462465 0.77307 0.434152
-5.77949 24.5711 5.30246 -0.450155 0.769942 0.452272
-5.23423 24.6114 5.747 -0.443407 0.751671 0.488229
-4.7836 24.6202 6.09842 -0.399821 0.753682 0.521637
-4.24678 24.6257 6.48106 -0.364541 0.747827 0.554849
-3.8077 24.6131 6.77406 -0.343394 0.745481 0.57126
-3.36759 24.6034 7.02567 -0.295144 0.752432 0.588842
-2.86781 24.5949 7.2766 -0.276124 0.755996 0.593485
-2.3947 24.5675 7.49221 -0.200279 0.757413 0.621382
-1.91194 24.5252 7.69031 -0.160047 0.770822 0.616565
-1.44437 24.4615 7.88178 -0.134084 0.770859 0.622734
-0.831101 24.3834 8.08355 -0.0829431 0.771468 0.630567
-0.223196 24.2473 8.29207 -0.0160394 0.779297 0.626115
0.36856 24.0705 8.4964 0.0224735 0.788053 0.614859
0.820473 23.9151 8.66616 0.0660315 0.803697 0.591351
1.28992 23.7435 8.84127 0.0920833 0.814694 0.57251
1.79201 23.5446 9.04466 0.109399 0.817697 0.564933
2.27344 23.3423 9.23857 0.116299 0.82581 0.551827
2.7254 23.1368 9.43945 0.131924 0.827918 0.545112
3.16551 22.9067 9.67097 0.151339 0.838406 0.523615
3.55052 22.6691 9.92869 0.175323 0.84576 0.503937
3.97766 22.4152 10.1993 0.185739 0.84891 0.494825
4.57154 22.3417 10.0899 0.195476 0.85353 0.482948
5.17225 22.3202 9.85923 0.226348 0.853427 0.469386
5.66866 22.2726 9.69392 0.253099 0.851918 0.458124
6.14587 22.1891 9.56784 0.268374 0.857769 0.438272
6.6729 22.0782 9.44858 0.287035 0.856388 0.429081
7.17931 22.0015 9.24928 0.304073 0.855298 0.419441
7.40865 22.1366 8.78955 0.321411 0.859254 0.39777
7.51526 22.3304 8.29623 0.33824 0.848491 0.406988
7.64173 22.5502 7.70757 0.362535 0.845645 0.391731
7.78311 22.7141 7.21485 0.388577 0.834857 0.389724
7.96768 22.8688 6.68382 0.401345 0.835532 0.375245
8.15142 22.9773 6.23074 0.429444 0.824623 0.368204
8.3878 23.0807 5.71437 0.443701 0.822562 0.355515
8.64579 23.2097 5.0446 0.484953 0.809631 0.330633
8.83453 23.3384 4.4163 0.517046 0.80395 0.293815
8.97805 23.42 3.93291 0.539753 0.79921 0.264154
9.16635 23.5008 3.25181 0.560731 0.793681 0.235905
9.28987 23.541 2.76691 0.590558 0.784458 0.189383
9.43641 23.5617 2.15828 0.598147 0.787514 0.147848
9.55204 23.5457 1.66346 0.619999 0.777467 0.105273
9.71132 23.4966 1.06009 0.620126 0.780465 0.078965
9.84825 23.4374 0.455054 0.621221 0.781597 0.0563777
9.92326 23.4074 -0.131255 0.623736 0.781047 0.0283318
9.95772 23.384 -0.76201 0.62712 0.778362 -0.0285924
9.93119 23.3772 -1.30921 0.625975 0.778379 -0.0477626
9.84642 23.3987 -1.87821 0.622672 0.779146 -0.0709897
9.78506 23.3842 -2.39931 0.594632 0.796757 -0.107659
9.70301 23.3642 -2.90968 0.593109 0.789385 -0.156314
9.58285 23.318 -3.50906 0.573332 0.797248 -0.188381
9.4292 23.2529 -4.18257 0.559032 0.799745 -0.218841
9.30936 23.1484 -4.82916 0.543866 0.804203 -0.239659
9.22266 23.0446 -5.35557 0.52987 0.806709 -0.261642
9.14509 22.9196 -5.8869 0.518977 0.810879 -0.270276
9.09143 22.7785 -6.40708 0.506418 0.813898 -0.2848
9.06078 22.6327 -6.89373 0.495358 0.823211 -0.277389
9.04415 22.483 -7.38072 0.484005 0.832209 -0.270496
9.04372 22.2889 -7.98606 0.462706 0.846639 -0.262645
9.06903 22.1279 -8.47255 0.441929 0.860808 -0.252404
9.15744 21.9193 -9.04118 0.43142 0.867208 -0.248649
9.29299 21.6831 -9.65143 0.409335 0.881275 -0.236219
9.36946 21.5039 -10.187 0.399132 0.884666 -0.240956
8.93672 21.5721 -10.5905 0.358501 0.893139 -0.271192
8.48266 21.6346 -10.9419 0.293103 0.910604 -0.29136
8.0125 21.6791 -11.2612 0.284805 0.908865 -0.304714
7.54068 21.709 -11.5498 0.243804 0.912046 -0.329746
7.08358 21.6992 -11.8414 0.207744 0.906093 -0.368551
6.62477 21.6818 -12.1155 0.176849 0.904538 -0.387702
6.06443 21.6472 -12.42 0.144915 0.895679 -0.420426
5.58127 21.5873 -12.7023 0.122122 0.89584 -0.427268
5.11094 21.521 -12.9579 0.102354 0.891514 -0.441277
4.61041 21.4512 -13.1873 0.0742399 0.878724 -0.471313
4.11498 21.3844 -13.3736 0.0452153 0.869812 -0.491093
3.60576 21.368 -13.4382 0.034436 0.864707 -0.501094
3.12187 21.5534 -13.1557 0.0278006 0.856668 -0.515119
2.73914 21.7603 -12.8295 0.00933523 0.85729 -0.514749
2.32512 21.9687 -12.4981 0.00597196 0.846359 -0.532579
1.87236 22.1746 -12.1747 -5.17404e-05 0.845877 -0.533378
1.40529 22.367 -11.8707 -0.0108746 0.835161 -0.549899
0.869471 22.591 -11.5157 -0.0253446 0.833069 -0.552588
0.413672 22.7613 -11.2447 -0.0505809 0.815767 -0.576165
-0.0459555 22.9057 -10.9927 -0.0665641 0.812932 -0.578543
-0.525545 23.0379 -10.7454 -0.0729147 0.809818 -0.582085
-0.992955 23.1432 -10.5304 -0.104339 0.797987 -0.5935
-1.5271 23.2515 -10.2634 -0.145248 0.79143 -0.593752
-2.09331 23.3512 -9.98511 -0.157014 0.788988 -0.594007
-2.54414 23.419 -9.76336 -0.181921 0.7858 -0.591035
-3.01484 23.4842 -9.52253 -0.208701 0.779097 -0.59101
-3.509 23.5398 -9.25226 -0.245401 0.776305 -0.58046
-3.95552 23.5712 -9.00324 -0.275367 0.777894 -0.564849
-4.40614 23.5882 -8.75302 -0.297684 0.778441 -0.552499
-4.91368 23.5972 -8.44927 -0.315891 0.784017 -0.534305
-5.391 23.5804 -8.16281 -0.35939 0.775551 -0.518812
-5.9705 23.5413 -7.78232 -0.38657 0.779082 -0.493552
-6.39204 23.5123 -7.46622 -0.422457 0.778159 -0.464756
-6.80915 23.4658 -7.14586 -0.434628 0.784765 -0.44186
-7.24646 23.407 -6.80472 -0.448142 0.789572 -0.41922
-7.73859 23.3216 -6.42014 -0.455736 0.792925 -0.404443
-8.17195 23.2157 -6.08898 -0.495205 0.790988 -0.358952
-8.68437 23.067 -5.70166 -0.498026 0.803104 -0.3271
-9.10566 22.9243 -5.43322 -0.477951 0.827164 -0.295571
-9.53661 22.7673 -5.17725 -0.473347 0.830576 -0.293355
-9.97581 22.6061 -4.93028 -0.468635 0.837125 -0.282138
-10.5807 22.3759 -4.60929 -0.463393 0.844275 -0.269196
-11.1463 22.1399 -4.36445 -0.47083 0.847902 -0.243685
-11.6123 21.9457 -4.16224 -0.459729 0.857995 -0.228995
-12.1167 21.7209 -3.98172 -0.474947 0.85956 -0.186978
-12.6159 21.4682 -3.82565 -0.471696 0.862741 -0.181879
-13.0568 21.2506 -3.72698 -0.456393 0.872053 -0.176715
-13.5483 21.0565 -3.41495 -0.447653 0.881793 -0.148484
-13.7286 21.0615 -2.79085 -0.440124 0.888705 -0.128433
-13.8238 21.0711 -2.23795 -0.462871 0.881953 -0.0880919
-13.8887 21.0737 -1.70078 -0.479594 0.875804 -0.0539618
-13.944 21.0696 -1.15521 -0.478995 0.877013 -0.037337
-13.995 21.0529 -0.613134 -0.479193 0.877624 -0.00884261
-14.0127 21.0348 -0.111662 -0.473746 0.880215 0.0262121
-13.9228 21.0489 0.54179 -0.477683 0.876464 0.0587672
-13.526 21.2358 0.857872 -0.475538 0.875898 0.0816534
-13.0735 21.477 0.987802 -0.478861 0.874765 0.0736675
-12.5697 21.7332 1.14015 -0.470514 0.879063 0.0765811
-12.1173 21.9616 1.27847 -0.476971 0.874976 0.0824989
-11.6784 22.1899 1.41519 -0.481424 0.871816 0.090374
-11.2538 22.4101 1.58106 -0.491559 0.863182 0.115259
-10.737 22.6724 1.8296 -0.491446 0.86278 0.118709
-10.2927 22.8929 2.04014 -0.495822 0.857103 0.138916
-9.75917 23.1663 2.28231 -0.512566 0.843402 0.161091
-9.30218 23.3893 2.57582 -0.526349 0.832988 0.170553
-8.91473 23.5685 2.84356 -0.53105 0.823385 0.199841
-8.45198 23.7771 3.19192 -0.521282 0.822147 0.228572
-8.01797 23.9689 3.49921 -0.52671 0.806971 0.266703
-7.56364 24.1469 3.85577 -0.530381 0.793767 0.297174
-7.52613 24.1614 3.88608 -0.544557 0.783273 0.299902
