30.4562 5.82372 126.195 -0.0844217 0.614853 0.78411
34.8979 7.81569 125.019 0.012547 0.610363 0.792022
39.7871 8.47184 124.25 0.0583734 0.657975 0.750774
44.7877 8.56437 123.499 0.117943 0.680279 0.723397
49.7044 8.50324 122.428 0.194703 0.683156 0.703838
54.5076 8.59177 120.961 0.260029 0.680787 0.684735
59.226 8.55183 119.121 0.271572 0.692625 0.668221
63.6624 8.57225 116.834 0.356036 0.703652 0.614909
67.8884 8.58722 114.101 0.392762 0.680037 0.619102
71.8297 8.52535 111.031 0.463136 0.68704 0.559894
75.5828 8.48525 107.684 0.526339 0.684436 0.504495
78.9152 8.4455 103.949 0.569003 0.658394 0.4927
82.3978 7.65916 100.525 0.628119 0.649021 0.429217
86.0305 6.04681 97.4638 0.657354 0.643048 0.392842
84.8191 5.49556 100.22 0.636183 0.650933 0.414195
82.0053 5.28804 104.603 0.594929 0.667594 0.447636
78.7515 5.37011 108.514 0.560256 0.675019 0.480065
75.2713 5.24466 112.305 0.482026 0.693988 0.534814
71.5162 5.18167 115.618 0.454985 0.721378 0.522092
67.3749 5.10524 118.51 0.363241 0.723149 0.587444
63.0264 5.18005 121.109 0.351649 0.71222 0.607525
58.414 5.19424 123.135 0.25539 0.716937 0.648674
53.5909 5.159 124.878 0.151657 0.725435 0.671375
48.6951 5.22583 125.909 0.168799 0.709153 0.684494
43.6942 5.37912 126.692 0.0787542 0.6939 0.715752
38.6437 5.54919 126.793 0.0108462 0.658412 0.752579
33.63 5.77277 126.553 -0.058722 0.610347 0.789955
30.4827 5.78518 126.228 -0.0844168 0.614843 0.784119
29.9291 1.94172 129.176 -0.0907006 0.615788 0.782674
34.9765 1.93638 129.7 -0.0845602 0.643802 0.760397
40.0711 1.87045 129.993 -0.0251872 0.667663 0.744037
45.0711 1.80411 130.054 0.0652815 0.70298 0.708189
50.1186 1.79056 129.2 0.132149 0.712857 0.688746
55.0464 1.75176 128.161 0.225912 0.720974 0.655103
59.7788 1.77779 126.398 0.254998 0.718862 0.646694
64.3832 1.75533 124.431 0.328411 0.729604 0.599854
68.793 1.72639 121.921 0.349121 0.733807 0.582788
72.94 1.71106 119.113 0.422752 0.719024 0.551614
76.7452 1.77764 115.715 0.463393 0.718902 0.518118
80.2291 1.81401 112.035 0.54619 0.701533 0.457741
83.5297 1.79219 108.101 0.556785 0.697949 0.450397
86.2496 1.81589 103.906 0.624668 0.680865 0.382377
88.9168 1.91308 99.5204 0.667733 0.643776 0.373745
91.127 1.95649 95.0006 0.702633 0.631922 0.327081
93.3138 2.00682 90.309 0.723618 0.613284 0.316637
95.3044 2.01714 85.6061 0.736818 0.603897 0.303987
97.0263 2.14992 81.2235 0.738127 0.599016 0.3104
93.9925 4.06178 84.8007 0.742277 0.584293 0.328065
90.7776 6.04934 88.2961 0.72563 0.610654 0.317115
87.4743 8.0244 91.6133 0.680162 0.623452 0.385545
84.0163 9.77954 94.8003 0.680867 0.632031 0.370077
80.2128 11.4102 98.0291 0.603928 0.65627 0.452306
76.7793 12.0898 101.548 0.56667 0.6614 0.491361
73.3146 12.1286 105.168 0.526736 0.677073 0.513927
69.5946 12.1609 108.551 0.458598 0.684863 0.56626
65.639 12.1486 111.614 0.403033 0.681294 0.611066
61.2972 12.1561 114.308 0.364729 0.684648 0.631055
56.7959 12.1383 116.551 0.285355 0.672214 0.683155
52.0343 12.1443 118.298 0.235545 0.683604 0.690778
47.1618 12.1025 119.661 0.156801 0.666701 0.728644
42.2482 12.1388 120.597 0.112413 0.673395 0.730686
37.2283 12.0872 121.347 0.115214 0.657157 0.744896
32.4542 11.0835 122.373 -0.0756096 0.60008 0.796359
27.9266 9.06156 123.49 -0.0801947 0.588723 0.804341
23.4661 6.95264 124.394 -0.114314 0.583586 0.803965
18.9983 4.84132 125.155 -0.173428 0.556817 0.812328
14.5722 2.46382 125.767 -0.198919 0.566061 0.800004
17.9872 2.0372 126.921 -0.199015 0.580003 0.789931
22.8988 2.05573 127.967 -0.161599 0.597027 0.785768
27.9742 2.00511 128.891 -0.117826 0.616755 0.778283
29.7428 1.94507 129.152 -0.0892789 0.615722 0.782888
29.7624 1.94441 129.154 -0.0907322 0.615789 0.782669
