24.5447 6.88841 -129.107 -0.362927 0.595462 -0.716734
28.9255 6.62102 -131.355 -0.295694 0.626147 -0.721264
33.553 6.30553 -133.367 -0.250283 0.693831 -0.675246
38.2343 5.93934 -135.099 -0.138645 0.734091 -0.664746
43.1479 5.6008 -136.248 -0.0710592 0.767884 -0.636635
47.667 7.19008 -134.655 -0.0301907 0.796454 -0.603945
52.2719 8.35692 -132.945 0.0561814 0.813423 -0.578954
56.8044 9.24341 -130.933 0.105844 0.830651 -0.54664
52.0984 9.04938 -131.977 0.057631 0.81738 -0.573209
47.0193 8.71353 -132.652 0.00411243 0.788145 -0.615441
41.9799 8.47773 -132.741 -0.0783873 0.749419 -0.657439
36.9192 8.08991 -132.359 -0.11516 0.7399 -0.662787
31.9133 7.67888 -131.411 -0.230987 0.635603 -0.736628
26.9867 7.31574 -129.899 -0.338404 0.599246 -0.725526
24.6542 7.02371 -129.05 -0.361967 0.596459 -0.716392
21.7358 9.88738 -125.242 -0.36319 0.565562 -0.740428
18.0878 6.36734 -125.823 -0.443633 0.515111 -0.733357
14.5947 2.82542 -126.323 -0.45978 0.549762 -0.697396
18.0655 2.40642 -128.939 -0.444116 0.570089 -0.691201
22.3665 2.3309 -131.639 -0.402206 0.583668 -0.705379
26.7053 2.28398 -134.203 -0.357681 0.625815 -0.693114
31.1895 2.21057 -136.481 -0.321096 0.643813 -0.694551
35.8705 2.07884 -138.535 -0.20042 0.708714 -0.676362
40.6971 1.95439 -139.982 -0.188898 0.718081 -0.669833
45.5845 2.45845 -140.389 -0.0820759 0.772882 -0.629219
49.9889 4.21123 -138.791 -0.0550054 0.787184 -0.614261
54.6425 5.34118 -137.057 0.0625584 0.821676 -0.566511
59.2302 6.21436 -135.073 0.114986 0.83649 -0.535763
63.8205 6.52459 -132.95 0.225906 0.844807 -0.485045
68.3976 6.48502 -130.69 0.265467 0.848706 -0.457412
72.887 6.11965 -128.23 0.326604 0.841677 -0.430011
77.2858 5.63292 -125.7 0.418357 0.830573 -0.367577
81.3397 4.25615 -123.013 0.491223 0.813392 -0.311599
85.3854 2.70828 -120.303 0.550006 0.799356 -0.241916
88.3019 1.75829 -116.592 0.560284 0.789384 -0.250903
89.8584 1.96113 -111.86 0.652142 0.742818 -0.151433
91.0255 2.00837 -106.819 0.652331 0.740235 -0.162838
92.0186 2.11828 -101.851 0.698037 0.700886 -0.146639
92.8376 2.1006 -96.9188 0.71779 0.683811 -0.131014
93.7064 2.18779 -91.9674 0.737158 0.659006 -0.14936
94.462 2.27075 -86.8766 0.755623 0.643978 -0.11966
93.1216 3.86719 -86.5978 0.747473 0.654061 -0.116139
90.2521 6.61303 -89.6983 0.75277 0.646892 -0.121934
87.0993 9.2721 -92.654 0.707973 0.675325 -0.206665
83.9175 11.7765 -95.6573 0.700365 0.689484 -0.184646
81.9245 12.0243 -100.266 0.634787 0.730017 -0.253223
79.8526 12.0963 -104.89 0.605772 0.752025 -0.259806
77.4838 12.1811 -109.322 0.554296 0.77118 -0.313109
74.4449 12.1502 -113.453 0.48305 0.787098 -0.383588
71.0938 12.4246 -117.177 0.336838 0.842168 -0.42106
67.1644 12.4113 -120.423 0.356391 0.830961 -0.427162
62.8697 12.3888 -123.16 0.256796 0.829779 -0.495501
58.428 12.4132 -125.518 0.244459 0.840369 -0.483685
53.5714 12.3444 -126.867 0.123611 0.822771 -0.554752
48.5179 12.2458 -128.066 0.0923237 0.787219 -0.609724
43.372 12.1412 -128.441 0.0417656 0.761342 -0.647004
38.2468 12.0051 -128.419 -0.0716267 0.711849 -0.698652
33.2057 11.9095 -127.956 -0.132706 0.692988 -0.708624
28.2958 11.8183 -126.737 -0.229938 0.637363 -0.735448
23.661 11.4427 -124.958 -0.357949 0.583519 -0.728957
21.8636 9.99412 -125.223 -0.363201 0.565558 -0.740425
69.0558 9.24258 -124.998 0.314476 0.841161 -0.439947
72.9792 9.35923 -121.794 0.332635 0.841046 -0.42661
76.5313 9.04186 -118.132 0.497334 0.811061 -0.307961
79.6068 8.71008 -114.034 0.497309 0.794621 -0.348064
82.2412 8.51776 -109.642 0.577117 0.763741 -0.289198
84.389 8.33187 -105.119 0.623006 0.747434 -0.230446
86.1962 8.08754 -100.358 0.684325 0.705659 -0.183697
88.9026 6.23576 -97.2768 0.71355 0.683766 -0.15267
87.9004 5.9801 -102.278 0.674615 0.714982 -0.183563
86.6863 5.77701 -107.14 0.639389 0.738039 -0.215595
85.4111 5.40946 -111.976 0.557011 0.785653 -0.269236
82.9735 5.6878 -116.185 0.557545 0.791335 -0.250865
79.0407 7.22614 -118.864 0.499937 0.812189 -0.300685
74.9701 8.66482 -121.481 0.391365 0.837067 -0.382299
70.5384 9.11572 -124.17 0.332316 0.838403 -0.432026
69.2998 9.22391 -124.86 0.312692 0.839891 -0.44361
69.2516 9.22784 -124.886 0.314472 0.841164 -0.439943
