18.4186 6.5779 -129.671 -0.427279 0.559879 -0.7099
22.5578 7.48539 -131.33 -0.406033 0.57181 -0.712861
27.1791 7.60334 -133.538 -0.352804 0.592282 -0.724384
31.9549 8.01612 -135.276 -0.256909 0.637055 -0.726746
36.8745 8.57465 -136.233 -0.121391 0.740029 -0.66153
41.9358 8.76939 -136.703 -0.0657527 0.748379 -0.660004
39.8076 7.5475 -137.868 -0.0744631 0.745801 -0.661994
35.3089 5.90553 -138.608 -0.210602 0.69625 -0.686019
30.7207 6.07874 -136.573 -0.335946 0.634376 -0.696209
26.3067 6.2486 -134.229 -0.349761 0.606277 -0.714195
21.8241 6.43333 -131.745 -0.410722 0.564643 -0.715881
18.5344 6.5725 -129.745 -0.423228 0.562826 -0.709979
16.9014 2.21587 -132.156 -0.462537 0.558613 -0.688485
12.7527 2.22353 -129.296 -0.492462 0.53334 -0.687772
9.49556 2.75125 -126.594 -0.495435 0.520607 -0.69535
12.9755 6.34695 -126.35 -0.471475 0.524607 -0.708872
16.4437 9.96922 -125.876 -0.443253 0.520812 -0.729576
20.5515 11.756 -126.89 -0.386071 0.553599 -0.737887
25.058 11.7177 -129.152 -0.328978 0.556195 -0.763163
29.6296 11.8641 -131.167 -0.33134 0.59571 -0.731672
34.6281 12.0424 -132.33 -0.071438 0.695557 -0.714911
39.6299 12.1747 -132.791 -0.0610692 0.726663 -0.684275
44.6915 12.3184 -132.813 0.0457176 0.779729 -0.624445
49.7628 12.3861 -132.532 0.0107137 0.796614 -0.604393
54.7392 12.4919 -131.593 0.128621 0.83366 -0.537092
59.6228 12.5248 -130.345 0.184182 0.830524 -0.525649
64.25 12.5336 -128.024 0.256774 0.837942 -0.481581
68.6096 12.5135 -125.461 0.329604 0.837363 -0.436102
72.5285 12.5137 -122.346 0.34578 0.841218 -0.415679
75.9995 12.415 -118.764 0.484916 0.815325 -0.316388
78.9973 12.3292 -114.74 0.494767 0.784945 -0.372918
81.6267 12.2541 -110.459 0.598013 0.758438 -0.259136
83.7461 12.225 -105.869 0.607945 0.741982 -0.282605
85.6663 12.1428 -101.212 0.660126 0.712035 -0.239249
87.3014 12.0166 -96.4486 0.70885 0.682587 -0.177782
88.5662 12.0173 -91.5976 0.727529 0.663754 -0.173584
91.3186 9.64945 -88.2054 0.749607 0.647502 -0.137221
94.2703 6.9423 -85.0997 0.761413 0.630096 -0.152409
97.0497 4.33832 -81.8043 0.764671 0.628457 -0.14255
99.2506 2.11047 -79.8882 0.764859 0.628471 -0.141476
98.3912 2.04697 -84.8273 0.759472 0.635541 -0.138888
97.5707 2.02358 -89.8125 0.753375 0.647987 -0.111942
96.7683 2.05399 -94.8362 0.743238 0.655834 -0.132208
95.9593 1.99728 -99.8432 0.739941 0.661693 -0.121027
95.1403 1.99193 -104.784 0.711275 0.690563 -0.131187
94.1648 1.8967 -109.693 0.687087 0.713063 -0.139473
93.0057 2.02693 -114.686 0.67504 0.723982 -0.142028
89.2427 4.10826 -117.684 0.57731 0.776524 -0.252436
85.4956 5.96429 -120.45 0.541843 0.796413 -0.268564
81.4977 7.40683 -123.129 0.492907 0.8086 -0.321262
77.4274 8.75288 -125.812 0.39699 0.835034 -0.380498
73.05 9.25738 -128.326 0.332994 0.836602 -0.434985
68.5573 9.61775 -130.807 0.263953 0.841973 -0.470542
64.032 9.71862 -133.065 0.226601 0.844868 -0.484612
59.4708 9.42635 -135.221 0.128911 0.834024 -0.536457
54.7739 8.77024 -137.158 0.0694495 0.812882 -0.578272
50.1437 7.64295 -138.951 0.00141143 0.813325 -0.581795
45.6213 6.04484 -140.535 -0.093997 0.774414 -0.625657
41.0808 4.29869 -141.893 -0.182879 0.754502 -0.630303
36.7486 1.95936 -142.961 -0.183832 0.696424 -0.693685
32.0947 2.05713 -140.897 -0.350334 0.62828 -0.694644
27.4851 2.0506 -138.571 -0.367875 0.628712 -0.685112
23.0907 2.16586 -136.073 -0.418723 0.594904 -0.686119
18.7849 2.20631 -133.401 -0.42167 0.575557 -0.700662
16.9337 2.2155 -132.178 -0.462514 0.558512 -0.688582
82.4513 9.21997 -117.014 0.524332 0.795909 -0.302663
86.2724 7.34438 -114.48 0.587292 0.7727 -0.24088
89.8593 5.42211 -111.429 0.633283 0.755428 -0.168157
91.0517 5.55098 -106.565 0.666592 0.722233 -0.184482
92.052 5.78316 -101.626 0.707658 0.691593 -0.144637
92.953 5.95122 -96.5641 0.726535 0.672572 -0.140684
93.9089 5.96742 -91.5785 0.744986 0.652303 -0.139622
91.3219 8.12637 -94.8174 0.72878 0.665839 -0.159805
90.0655 8.33055 -99.6694 0.710031 0.68137 -0.17768
88.4331 8.50832 -104.457 0.668997 0.720744 -0.181575
86.5554 8.82475 -109.114 0.603684 0.7576 -0.248159
84.4788 8.94125 -113.693 0.570251 0.777499 -0.265139
82.6255 9.20443 -116.753 0.524301 0.794935 -0.305253
82.5778 9.17603 -116.911 0.524331 0.795909 -0.302665
