-2.77634 28.3685 -1.82045 -0.624144 0.733158 -0.270044
-2.1499 29.118 -0.0212354 -0.494406 0.868636 -0.014153
-0.812003 29.2947 1.45696 -0.0906057 0.917164 0.388074
1.16303 29.2337 1.39586 0.236962 0.899175 0.367311
2.73843 28.8908 0.221644 0.574916 0.81097 0.107426
3.47374 28.1907 -1.46385 0.667745 0.723846 -0.173675
2.74305 27.7246 -3.37724 0.427822 0.682407 -0.592696
1.33143 27.6031 -4.21958 0.206508 0.726318 -0.654936
-0.576488 28.2502 -3.6787 -0.152322 0.756168 -0.636055
-2.31594 28.3718 -2.57298 -0.389339 0.813166 -0.430335
-2.77257 28.3615 -1.84831 -0.624144 0.733158 -0.270044
-6.78606 24.802 0.641699 -0.61585 0.783806 0.0788667
-7.72374 24.1072 -1.05953 -0.585961 0.808848 -0.048531
-8.07523 23.6685 -2.63792 -0.548845 0.823063 -0.146071
-6.81331 24.1267 -4.22998 -0.542836 0.791859 -0.278346
-5.41737 24.393 -5.68349 -0.475745 0.767619 -0.42945
-3.8346 24.3892 -6.98614 -0.331269 0.755096 -0.565756
-2.02086 24.2811 -7.90388 -0.164094 0.77253 -0.613408
-0.172767 23.9223 -8.65652 -0.0133222 0.793232 -0.608774
1.81677 23.3217 -9.38953 0.089126 0.828844 -0.552335
3.50131 22.5613 -10.2717 0.126599 0.852602 -0.506952
4.84234 21.6871 -11.4975 0.13585 0.869349 -0.47516
6.07912 20.7878 -12.9967 0.104591 0.903604 -0.415405
7.90636 20.7408 -12.3116 0.223219 0.921629 -0.317447
7.70125 21.3295 -10.7884 0.301673 0.904857 -0.300273
6.80564 22.2132 -9.23569 0.320872 0.876565 -0.358696
6.42692 23.1853 -7.33488 0.3719 0.84095 -0.393056
6.83919 23.8289 -5.42243 0.479998 0.798419 -0.363493
7.48555 24.1407 -3.55647 0.568144 0.78067 -0.260322
8.01449 24.2092 -1.55178 0.619509 0.777016 -0.111601
7.88872 24.3484 0.466039 0.636112 0.767854 0.075905
7.10071 24.5866 2.34966 0.579956 0.780832 0.231682
5.59505 25.0318 3.68904 0.49837 0.763203 0.411032
3.94327 25.1179 4.98003 0.35455 0.758895 0.546235
2.00114 25.2796 5.7638 0.227784 0.749754 0.621276
-0.0631914 25.3802 6.09748 0.0476831 0.724327 0.687806
-2.04957 25.3487 5.82511 -0.218188 0.721575 0.657039
-3.83904 25.3725 4.79218 -0.429884 0.725389 0.537246
-5.3229 25.3135 3.20331 -0.560164 0.749052 0.353749
-6.41065 24.9898 1.47483 -0.615363 0.772242 0.156069
-6.69542 24.8484 0.851294 -0.609777 0.787538 0.0891986
-6.69926 24.8465 0.842322 -0.609777 0.787538 0.089199
