-8.91243 19.7855 -15.1596 -0.290936 0.826897 -0.481245
-8.68444 19.8125 -15.2512 -0.288719 0.82463 -0.486394
-8.70564 19.802 -15.2563 -0.291231 0.829009 -0.477398
-8.46594 20.3758 -14.4318 -0.295169 0.816321 -0.496482
-7.43563 21.4872 -13.2381 -0.290106 0.811032 -0.508002
-6.20294 22.6995 -12.034 -0.289406 0.796855 -0.530345
-4.83763 23.869 -11.0484 -0.26954 0.781207 -0.563069
-3.28282 24.9382 -10.2544 -0.206206 0.780871 -0.589674
-1.54542 25.8204 -9.60712 -0.123931 0.7812 -0.611856
0.274432 26.4164 -9.03025 -0.00542607 0.785595 -0.618666
2.2345 26.8134 -8.29832 0.143147 0.795966 -0.588015
4.01338 26.9447 -7.39489 0.299209 0.802511 -0.516188
5.7903 26.8501 -6.1831 0.436261 0.790466 -0.42993
7.36507 26.5194 -4.84602 0.539343 0.776443 -0.325954
8.81518 25.9281 -3.55309 0.578934 0.787636 -0.210764
10.2491 25.0541 -2.42849 0.608371 0.787372 -0.0996511
11.7036 24.0078 -1.49541 0.611655 0.789511 -0.0504561
13.236 22.886 -0.778492 0.597961 0.801196 -0.0220578
14.8798 21.6696 -0.321129 0.601118 0.79916 -0.000233639
14.9055 21.6391 0.40829 0.603394 0.796944 0.0282057
13.2289 22.8853 0.99475 0.591288 0.804368 0.0572129
11.6205 24.0088 1.77271 0.603004 0.790794 0.104976
10.1276 24.9234 2.8551 0.585518 0.794433 0.161155
8.59403 25.6125 4.1617 0.529497 0.802228 0.275796
7.03908 25.9749 5.57469 0.450601 0.797187 0.40181
5.46189 26.0575 6.87104 0.36043 0.792014 0.492699
3.75053 26.0389 7.94699 0.255781 0.805057 0.534847
1.78167 25.9822 8.63693 0.103177 0.788353 0.606437
-0.266809 25.6248 9.21462 -0.0247184 0.787631 0.615651
-2.19403 24.8999 9.8001 -0.170589 0.786248 0.593897
-3.87213 23.9459 10.5015 -0.235897 0.796826 0.556256
-5.48078 23.0414 11.0253 -0.28892 0.792831 0.536602
-7.1781 23.1128 9.87701 -0.355072 0.791083 0.498107
-7.27763 24.1551 8.16254 -0.380366 0.791385 0.478572
-7.54629 25.1248 6.20089 -0.446642 0.789538 0.420881
-7.96392 25.8088 4.29909 -0.508391 0.789124 0.344704
-8.37959 26.1812 2.37271 -0.581781 0.788891 0.197814
-8.56791 26.3876 0.221018 -0.597145 0.799865 0.0587025
-8.3448 26.4259 -1.92583 -0.575049 0.809787 -0.116465
-7.91806 26.2256 -3.99529 -0.555481 0.793281 -0.249246
-7.49409 25.6688 -6.01697 -0.47688 0.796211 -0.372336
-7.22362 24.86 -7.88054 -0.396665 0.79477 -0.459189
-7.16517 23.8253 -9.6676 -0.37421 0.790842 -0.484288
-7.33189 22.7095 -11.3615 -0.334212 0.805527 -0.489296
-7.77646 21.4696 -13.0716 -0.290013 0.810893 -0.508276
-8.384 20.4723 -14.3218 -0.295537 0.816483 -0.495997
-14.1585 20.002 -10.7968 -0.363893 0.838381 -0.405831
-13.5821 21.0443 -9.17766 -0.384624 0.832821 -0.398059
-13.3895 21.9364 -7.39103 -0.397221 0.845544 -0.356723
-13.5644 22.5959 -5.42199 -0.424558 0.862384 -0.27566
-13.98 22.8638 -3.39986 -0.453623 0.884124 -0.112033
-14.3366 22.8573 -1.35203 -0.48868 0.87166 -0.0374257
-14.3876 22.7721 0.66707 -0.490573 0.869673 0.0548315
-14.1989 22.5794 2.77592 -0.486201 0.858028 0.165099
-13.7742 22.2802 4.7409 -0.458775 0.838381 0.294352
-13.4368 21.7123 6.65983 -0.435866 0.828464 0.351557
-13.5053 20.7936 8.58622 -0.414074 0.821673 0.391658
-13.9756 19.7662 10.2719 -0.383745 0.833247 0.398045
-14.7949 18.638 11.8631 -0.358298 0.84104 0.405308
-13.5192 18.6101 13.0136 -0.349699 0.836588 0.42168
-11.8867 18.6507 14.2061 -0.321913 0.833661 0.448755
-9.90174 19.0133 14.9056 -0.301874 0.832447 0.464654
-8.05072 19.028 15.9575 -0.259941 0.834325 0.486141
-6.46007 18.7805 17.1787 -0.230495 0.839518 0.492018
-4.8959 18.4408 18.4359 -0.205469 0.841826 0.49911
-3.27781 18.0374 19.7293 -0.177243 0.844148 0.505964
-2.55885 19.0855 18.2452 -0.178262 0.8367 0.517838
-1.62274 20.1775 16.8252 -0.171233 0.827835 0.5342
-0.332037 21.1696 15.6637 -0.140814 0.830951 0.538227
1.31153 21.9217 14.7872 -0.045319 0.846313 0.530755
3.18199 22.2436 14.174 0.104097 0.866673 0.487799
5.11709 22.2539 13.5802 0.178369 0.846441 0.50172
7.04592 22.2682 12.694 0.253873 0.852093 0.457649
8.71625 22.3343 11.5798 0.288079 0.842614 0.454986
10.3493 22.3057 10.262 0.382239 0.854139 0.352618
11.8439 22.0559 8.91967 0.468018 0.832807 0.295621
13.4313 21.448 7.79699 0.525794 0.821269 0.221486
15.0877 20.5438 7.14198 0.538441 0.823662 0.177939
16.8208 19.4756 6.89231 0.52823 0.835299 0.152473
18.5095 18.3804 7.08092 0.524553 0.840853 0.133446
20.1055 17.3048 7.66366 0.517847 0.845908 0.127571
20.6062 17.1875 6.32914 0.521686 0.845467 0.114103
20.7056 17.3749 4.30742 0.529197 0.84355 0.0915047
21.0119 17.3555 2.27528 0.542973 0.838244 0.0502794
21.2893 17.2662 0.250429 0.54651 0.837022 0.0268622
21.4937 17.15 -1.75918 0.548681 0.835963 -0.010682
21.6914 16.9229 -3.87329 0.545984 0.835434 -0.062586
21.7809 16.6803 -5.87077 0.536398 0.839613 -0.0855956
21.8136 16.421 -7.90227 0.536781 0.836204 -0.11237
20.7536 17.0757 -8.02843 0.526595 0.841815 -0.118514
19.0985 18.214 -7.24774 0.52448 0.843653 -0.114763
17.4083 19.3178 -6.89681 0.530423 0.83857 -0.124299
15.5833 20.4791 -6.96108 0.539488 0.830266 -0.140009
13.8597 21.509 -7.47495 0.539567 0.82535 -0.166329
12.2551 22.3591 -8.34083 0.525545 0.831271 -0.181083
10.7314 22.9675 -9.58134 0.454051 0.866446 -0.207628
9.1997 23.3283 -10.8881 0.345352 0.893128 -0.287609
7.4839 23.3996 -12.114 0.216853 0.901606 -0.374275
5.59992 23.3148 -13.135 0.131229 0.891718 -0.432818
3.64645 23.0657 -13.9246 0.052234 0.868838 -0.492293
1.80798 22.6283 -14.6062 -0.0524193 0.833571 -0.54992
0.0317465 21.8885 -15.4241 -0.122899 0.821172 -0.557291
-1.38668 20.8953 -16.5462 -0.151549 0.82273 -0.547859
-2.47127 19.789 -17.9288 -0.161657 0.833098 -0.528975
-3.09252 18.6576 -19.5509 -0.163488 0.841573 -0.514808
-3.4128 17.5566 -21.2791 -0.160155 0.848596 -0.504218
-3.46697 16.4789 -23.0736 -0.153001 0.848093 -0.507277
-3.71654 15.5327 -24.5814 -0.143721 0.848306 -0.509628
-5.60008 15.7811 -23.5763 -0.166178 0.853129 -0.494526
-7.32003 16.0429 -22.4918 -0.194522 0.854542 -0.48158
-9.15213 16.1208 -21.5705 -0.214543 0.855937 -0.470471
-10.9936 16.1136 -20.6781 -0.246454 0.857338 -0.451895
-12.7575 16.0734 -19.7227 -0.274301 0.859865 -0.430566
-14.6349 15.9846 -18.6074 -0.30243 0.858241 -0.414679
-16.277 15.9654 -17.3939 -0.320724 0.856218 -0.404997
-18.0624 15.7591 -16.3481 -0.348223 0.849165 -0.397063
-19.8991 15.2967 -15.665 -0.368465 0.845682 -0.386077
-18.4867 16.3594 -14.6765 -0.359872 0.846558 -0.392213
-16.9457 17.4508 -13.7082 -0.348024 0.847183 -0.401447
-15.5477 18.5349 -12.633 -0.34722 0.846433 -0.40372
-14.4309 19.6536 -11.2733 -0.360814 0.840375 -0.404445
-14.2213 19.919 -10.9119 -0.363262 0.838598 -0.405949
-4.45057 27.3157 -6.2527 -0.418188 0.756202 -0.503267
-2.51199 28.0113 -6.49673 -0.27071 0.783167 -0.55979
-1.33067 28.2435 -6.59104 -0.131062 0.775309 -0.617834
-5.82877 28.5667 1.06091 -0.65955 0.74452 0.10336
-4.21996 29.8229 1.17084 -0.552254 0.815472 0.173266
-2.47347 30.8216 1.28179 -0.447801 0.882661 0.142774
-0.412473 31.2433 1.31057 -0.0232585 0.968527 0.247821
1.80143 31.0718 1.29954 0.187591 0.927205 0.324193
3.73787 30.2889 1.19765 0.493836 0.829451 0.261032
5.43515 29.0659 1.07358 0.656853 0.737529 0.156829
7.01945 27.7338 0.950487 0.646846 0.752641 0.122972
7.70402 27.1589 0.903856 0.636051 0.756718 0.151054
7.86976 27.0209 0.897372 0.630525 0.761986 0.147699
