-1.62785 28.8859 -1.16746 -0.562442 0.781083 -0.271236
-1.62567 28.9565 -0.957315 -0.547496 0.813418 -0.184011
-1.60046 29 -0.75005 -0.618273 0.78516 -0.0355221
-1.57087 29.0342 -0.50818 -0.606506 0.793716 0.00795336
-1.53424 29.0485 -0.306854 -0.594736 0.802275 0.0514234
-1.49256 29.0626 -0.105113 -0.517627 0.847115 0.112824
-1.39495 29.0633 0.205784 -0.51131 0.844316 0.160287
-1.29248 29.0529 0.456489 -0.418881 0.858238 0.286155
-1.17903 29.0272 0.653027 -0.367904 0.889424 0.265534
-1.07661 29.03 0.825992 -0.384624 0.898048 0.213481
-0.961983 29.0399 0.99083 -0.319173 0.91555 0.234255
-0.784567 29.0398 1.10069 -0.237087 0.889191 0.391318
-0.585525 29.061 1.17296 -0.225589 0.888915 0.398443
-0.35416 29.1108 1.18595 -0.168757 0.905073 0.386898
-0.0167798 29.1717 1.14665 -0.123348 0.921499 0.368272
0.178859 29.2059 1.10503 -0.0838545 0.936874 0.339464
0.429044 29.239 1.03339 0.219682 0.91321 0.334698
0.608964 29.2127 0.945773 0.270345 0.921522 0.278765
0.784897 29.1891 0.851523 0.249854 0.941196 0.227333
1.02279 29.1612 0.726682 0.220963 0.952312 0.210423
1.31875 29.1074 0.55553 0.314938 0.933619 0.170108
1.52255 29.0591 0.429424 0.376668 0.914397 0.132657
1.70372 28.9874 0.294179 0.435428 0.893468 0.110081
1.86972 28.9225 0.164725 0.436737 0.893936 0.100195
2.03026 28.8197 0.0124253 0.57129 0.820206 0.0298266
2.17662 28.7231 -0.134382 0.554786 0.830702 0.0405965
2.32123 28.6389 -0.280328 0.538542 0.841887 0.0346153
2.4781 28.5348 -0.449489 0.637552 0.767413 -0.0678509
2.64274 28.3765 -0.69315 0.631964 0.771786 -0.0700858
2.78542 28.225 -0.926977 0.62609 0.767416 -0.138144
2.85 28.1336 -1.14955 0.658922 0.741627 -0.124518
2.83248 28.1105 -1.3526 0.66177 0.736337 -0.140956
2.71959 28.117 -1.61976 0.548227 0.775154 -0.313957
2.59429 28.1145 -1.84655 0.543909 0.777475 -0.315689
2.4896 28.1124 -2.02817 0.540563 0.777847 -0.32054
2.38428 28.112 -2.20981 0.490337 0.764698 -0.404015
2.26105 28.0767 -2.36664 0.427843 0.744318 -0.512778
2.12978 28.0378 -2.53265 0.42784 0.744318 -0.51278
2.00517 27.9928 -2.68488 0.376287 0.735698 -0.562468
1.84832 27.9352 -2.85432 0.367173 0.722695 -0.585573
1.67509 27.8851 -3.01303 0.3048 0.749422 -0.587259
1.44688 27.8626 -3.16941 0.314441 0.760622 -0.567963
1.18236 27.8655 -3.26747 0.183649 0.778808 -0.599776
0.946995 27.8822 -3.31181 0.161272 0.762288 -0.62679
0.736737 27.9088 -3.33139 0.153305 0.764262 -0.626413
0.512386 27.9442 -3.34245 0.110742 0.766741 -0.630968
0.290954 27.972 -3.33322 0.0697016 0.767507 -0.63724
0.0661511 28.0007 -3.3175 -0.0327291 0.707202 -0.704066
-0.171985 28.0209 -3.26104 -0.105368 0.72816 -0.67726
-0.401519 28.0419 -3.20271 -0.140551 0.72831 -0.669712
-0.639252 28.0619 -3.11769 -0.175734 0.72846 -0.662166
-0.864342 28.0983 -3.00313 -0.241856 0.78327 -0.571351
-1.06642 28.1655 -2.80821 -0.27909 0.781042 -0.558643
-1.23832 28.2781 -2.56383 -0.280255 0.782366 -0.556202
-1.35651 28.3841 -2.34598 -0.322366 0.774192 -0.544706
-1.43474 28.4857 -2.1558 -0.328958 0.766277 -0.551785
-1.51126 28.5988 -1.95593 -0.335126 0.755994 -0.562258
-1.5936 28.7525 -1.5914 -0.562895 0.753195 -0.340362
-1.62002 28.8335 -1.33486 -0.562442 0.781083 -0.271236
-4.71864 25.9141 -0.606728 -0.683106 0.729715 -0.0167793
-4.68671 25.9428 -0.360319 -0.690588 0.723239 0.00377193
-4.65988 25.9673 -0.144627 -0.690587 0.72324 0.00376871
-4.62765 25.9833 0.0889961 -0.700585 0.711364 0.0560442
-4.58682 25.9975 0.329567 -0.689288 0.720485 0.0760524
-4.53087 26.0122 0.636838 -0.690272 0.715298 0.108954
-4.48035 26.0196 0.906396 -0.687083 0.713124 0.136478
-4.43549 26.013 1.12277 -0.684799 0.710149 0.163519
-4.379 26.0105 1.3584 -0.669252 0.71713 0.193914
-4.31722 26.0108 1.55618 -0.670021 0.712565 0.208141
-4.22055 26.021 1.83265 -0.651591 0.723861 0.225161
-4.0986 26.0243 2.09178 -0.632097 0.717028 0.29381
-3.96952 26.0366 2.33956 -0.634703 0.715481 0.291935
-3.81956 26.038 2.57158 -0.621675 0.673901 0.399222
-3.66751 26.0474 2.7924 -0.597555 0.687033 0.412296
-3.49605 26.0262 3.04476 -0.535022 0.734508 0.417432
-3.34643 26.011 3.26318 -0.51021 0.731061 0.451082
-3.19855 25.9957 3.4342 -0.485395 0.727619 0.484729
-3.04897 25.9883 3.59319 -0.454542 0.730073 0.509203
-2.89135 25.9792 3.73328 -0.432031 0.727254 0.533339
-2.70437 25.9685 3.89629 -0.410998 0.71448 0.565417
-2.54128 25.9545 4.02151 -0.387246 0.713602 0.583792
-2.36077 25.9405 4.15792 -0.338995 0.716465 0.607531
-2.17349 25.9319 4.26033 -0.306562 0.739574 0.599208
-1.98036 25.9353 4.35496 -0.306562 0.739574 0.599208
-1.76161 25.9458 4.43926 -0.270522 0.742683 0.612568
-1.54493 25.9659 4.50684 -0.213562 0.707705 0.672499
-1.32665 25.9775 4.5497 -0.167304 0.72064 0.672821
-1.11682 25.9972 4.58082 -0.167304 0.72064 0.672821
-0.846358 26.0159 4.60251 -0.0859989 0.729161 0.678562
-0.612071 26.0431 4.59251 -0.0323823 0.727943 0.684872
-0.217609 26.0965 4.53893 0.0120802 0.736116 0.676748
0.0201275 26.1336 4.50091 0.0472523 0.685412 0.723366
0.250925 26.1531 4.4455 0.109324 0.693436 0.712176
0.481961 26.1793 4.38446 0.138461 0.691661 0.708213
0.709665 26.2047 4.30691 0.162082 0.68396 0.711286
0.942163 26.2375 4.22241 0.19189 0.679974 0.70703
1.13627 26.2598 4.13973 0.213583 0.66608 0.714436
1.36035 26.2826 4.05569 0.205468 0.656174 0.726098
1.58572 26.2948 3.96382 0.268598 0.655817 0.705521
1.95354 26.2904 3.81429 0.309001 0.668966 0.67602
2.16034 26.2821 3.72795 0.317629 0.664898 0.675968
2.40248 26.2636 3.61546 0.359109 0.673633 0.645956
2.64359 26.242 3.504 0.362363 0.67196 0.645871
2.88755 26.2125 3.37817 0.406418 0.683665 0.606158
3.13519 26.1823 3.2461 0.41319 0.67954 0.606166
3.38056 26.1399 3.10658 0.450952 0.679182 0.579093
3.60572 26.1015 2.97644 0.48581 0.683968 0.541679
3.81421 26.0489 2.83555 0.514059 0.695158 0.502492
4.02299 25.9988 2.69118 0.525506 0.698341 0.485525
4.23812 25.9333 2.53297 0.564979 0.686887 0.457149
4.47182 25.8615 2.35777 0.572373 0.70476 0.417206
4.62382 25.8044 2.22269 0.603821 0.708527 0.365225
4.7719 25.7501 2.08325 0.609218 0.706463 0.360145
4.91449 25.6962 1.94335 0.614618 0.704397 0.355063
5.05976 25.643 1.80343 0.612177 0.720869 0.323203
5.23417 25.5586 1.62253 0.634386 0.728688 0.258008
5.47398 25.4456 1.36632 0.623361 0.735219 0.266221
5.61929 25.3795 1.18515 0.640386 0.740546 0.203093
5.74656 25.3116 1.01441 0.651084 0.733927 0.193496
5.91404 25.2305 0.767827 0.641383 0.746984 0.174383
6.03066 25.1671 0.552277 0.639049 0.762269 0.102775
6.13302 25.1134 0.314078 0.651777 0.753042 0.087341
6.19466 25.0776 0.11477 0.657491 0.751528 0.0463903
6.24882 25.0384 -0.144785 0.650477 0.759239 0.0208761
6.27743 25.0208 -0.408539 0.641324 0.766721 -0.00567706
6.27603 25.0139 -0.608626 0.631437 0.774802 -0.031117
6.2603 25.0094 -0.891434 0.641148 0.765695 -0.0511085
6.23024 25.0112 -1.18378 0.643692 0.760213 -0.0879604
6.18179 25.0163 -1.49417 0.645932 0.758118 -0.0895383
6.13244 25.014 -1.71152 0.624067 0.766012 -0.154163
6.08447 25.0122 -1.91468 0.613928 0.769048 -0.176233
6.01712 25.0149 -2.10896 0.603795 0.772081 -0.198301
5.92823 25.0254 -2.32696 0.598474 0.766439 -0.232585
5.83279 25.0366 -2.52031 0.587553 0.771102 -0.245322
5.7346 25.0523 -2.71198 0.599396 0.752079 -0.272389
5.6318 25.0608 -2.88417 0.583652 0.747681 -0.316739
5.49468 25.0724 -3.10102 0.555691 0.753517 -0.351311
5.3365 25.0817 -3.33138 0.554133 0.758525 -0.342746
5.20359 25.0723 -3.54491 0.515346 0.759353 -0.397212
5.0309 25.0297 -3.85291 0.519517 0.757246 -0.395828
4.91822 24.999 -4.03794 0.500974 0.750498 -0.431021
4.80782 24.9675 -4.21819 0.473349 0.755265 -0.452957
4.68219 24.9375 -4.39132 0.453225 0.767779 -0.452882
4.54733 24.9086 -4.5753 0.441517 0.765826 -0.46715
4.31575 24.8612 -4.85738 0.42535 0.76191 -0.488354
4.07286 24.8248 -5.11925 0.417911 0.761496 -0.49545
3.89835 24.8014 -5.29015 0.384075 0.777321 -0.498255
3.75221 24.7743 -5.44512 0.376231 0.773391 -0.510001
3.60916 24.7477 -5.5853 0.36118 0.772438 -0.522329
3.43958 24.7128 -5.75192 0.34874 0.772886 -0.53004
3.19583 24.6476 -6.00124 0.33944 0.778699 -0.527473
3.02847 24.6218 -6.13238 0.311501 0.770533 -0.556099
2.75881 24.6084 -6.29102 0.269216 0.769848 -0.578668
2.51185 24.6242 -6.38481 0.270981 0.779398 -0.564639
2.23264 24.6604 -6.44751 0.222502 0.777341 -0.588417
2.00076 24.7002 -6.48268 0.200541 0.775776 -0.597814
1.75053 24.744 -6.50137 0.18285 0.771257 -0.609695
1.50563 24.7906 -6.51578 0.158922 0.769582 -0.617936
1.22553 24.8369 -6.52058 0.143459 0.763545 -0.629617
0.915959 24.8896 -6.52723 0.114334 0.757895 -0.641484
0.648342 24.9199 -6.52352 0.071219 0.758874 -0.647332
0.384124 24.9483 -6.51932 0.0508796 0.7543 -0.654188
0.151434 24.9685 -6.50843 0.0346525 0.747632 -0.663209
-0.0797135 24.9919 -6.49409 0.00992871 0.742274 -0.669515
-0.337094 25.0091 -6.46539 -0.0267244 0.742519 -0.669292
-0.587693 25.0372 -6.42463 -0.0443023 0.740737 -0.670006
-0.825149 25.0429 -6.38898 -0.0852555 0.739505 -0.66773
-1.04926 25.0521 -6.35019 -0.112236 0.739842 -0.662785
-1.25157 25.0624 -6.2958 -0.139131 0.740006 -0.658052
-1.63377 25.0763 -6.18446 -0.182934 0.744476 -0.642098
-1.8752 25.0796 -6.11428 -0.202688 0.756034 -0.621482
-2.08639 25.0789 -6.03754 -0.221142 0.734067 -0.64206
-2.29754 25.0857 -5.957 -0.243891 0.733711 -0.633718
-2.5 25.0927 -5.86248 -0.266639 0.733354 -0.625376
-2.69969 25.1061 -5.75811 -0.296564 0.759005 -0.579387
-2.88603 25.1144 -5.6443 -0.331189 0.740197 -0.585169
-3.07024 25.1259 -5.52553 -0.364461 0.735386 -0.570104
-3.24305 25.1263 -5.39927 -0.40268 0.736693 -0.543262
-3.41744 25.1315 -5.26291 -0.417468 0.733317 -0.536367
-3.57081 25.14 -5.12531 -0.444746 0.741853 -0.501851
-3.72563 25.1581 -4.96131 -0.459422 0.73732 -0.494982
-3.87082 25.1788 -4.78682 -0.482575 0.750151 -0.4521
-4.00041 25.2017 -4.61049 -0.483969 0.74973 -0.451305
-4.12498 25.2345 -4.4218 -0.48537 0.749308 -0.450505
-4.25089 25.2628 -4.21538 -0.506569 0.759936 -0.407291
-4.35884 25.2998 -4.01261 -0.524663 0.757397 -0.387654
-4.43195 25.3429 -3.81469 -0.555784 0.747243 -0.363914
-4.50725 25.3967 -3.58713 -0.586713 0.736877 -0.334179
-4.56351 25.4452 -3.36247 -0.606187 0.731814 -0.311424
-4.61694 25.495 -3.14146 -0.618788 0.731946 -0.283589
-4.65969 25.528 -2.94143 -0.631391 0.732075 -0.255757
-4.71494 25.5767 -2.66439 -0.643594 0.729112 -0.231207
-4.74984 25.6236 -2.39065 -0.655096 0.72994 -0.194521
-4.7672 25.6595 -2.1824 -0.653881 0.73456 -0.181277
-4.77861 25.708 -1.92812 -0.667811 0.730192 -0.144004
-4.78511 25.7695 -1.60254 -0.673452 0.723816 -0.150177
-4.77467 25.8126 -1.32247 -0.685025 0.724709 -0.0744177
-4.76448 25.8503 -1.08405 -0.703131 0.708172 -0.0551578
-4.74161 25.8809 -0.844215 -0.706929 0.706913 -0.0228943
-4.73226 25.8932 -0.7534 -0.693466 0.719488 -0.0319461
