-3.97843 28.0885 -1.7231 -0.657812 0.727172 -0.196226
-3.85265 28.1533 -1.90456 -0.657812 0.727171 -0.196229
-3.72624 28.2122 -2.05425 -0.630635 0.718752 -0.292603
-3.54873 28.2875 -2.24383 -0.622716 0.723852 -0.297082
-3.37748 28.3576 -2.41853 -0.603296 0.727134 -0.327354
-3.17102 28.433 -2.62654 -0.57798 0.725924 -0.370442
-3.01721 28.4697 -2.77071 -0.558855 0.724768 -0.402878
-2.82638 28.5161 -2.9558 -0.526928 0.725429 -0.439555
-2.6624 28.5392 -3.0885 -0.48793 0.731644 -0.476047
-2.48953 28.5637 -3.22555 -0.476237 0.725792 -0.496264
-2.32835 28.5824 -3.34299 -0.401616 0.778441 -0.482426
-2.15603 28.5988 -3.45992 -0.350301 0.777343 -0.518724
-1.93378 28.5942 -3.58617 -0.298982 0.776245 -0.555026
-1.72729 28.5859 -3.70548 -0.291242 0.7564 -0.5856
-1.51635 28.5626 -3.83038 -0.254865 0.765582 -0.590701
-1.29399 28.5386 -3.95737 -0.241796 0.759515 -0.603572
-1.08019 28.5163 -4.06445 -0.234721 0.749776 -0.618662
-0.690529 28.4551 -4.24078 -0.120913 0.734889 -0.667299
-0.426821 28.3996 -4.34811 -0.0915723 0.728901 -0.677857
-0.204706 28.3464 -4.4253 -0.0636784 0.726304 -0.684418
-0.0119196 28.3031 -4.48917 -0.0693897 0.740091 -0.668563
0.23693 28.2231 -4.56455 0.0444053 0.731105 -0.680818
0.454539 28.1465 -4.63266 0.0488692 0.7302 -0.681468
0.714365 28.0494 -4.71413 0.0620486 0.71941 -0.691809
0.995175 27.9265 -4.79727 0.17421 0.723293 -0.668204
1.21226 27.8204 -4.85494 0.175449 0.722417 -0.668829
1.38872 27.7368 -4.89891 0.210522 0.725193 -0.65447
1.63554 27.6129 -4.94981 0.242141 0.749614 -0.615992
1.84644 27.5113 -4.99051 0.242141 0.749614 -0.615992
2.05041 27.4023 -5.02342 0.290376 0.727401 -0.621748
2.24696 27.2926 -5.06071 0.299225 0.731891 -0.612073
2.45415 27.1736 -5.09312 0.335253 0.73452 -0.589988
2.66143 27.0662 -5.10912 0.34007 0.732418 -0.589821
2.86879 27.1157 -4.92648 0.344886 0.730314 -0.589656
2.95711 27.2192 -4.73383 0.373915 0.722813 -0.58068
3.05002 27.3485 -4.52194 0.394866 0.710379 -0.582171
3.14505 27.4693 -4.30086 0.411587 0.713538 -0.566975
3.24473 27.5809 -4.07991 0.423653 0.72996 -0.535893
3.33722 27.6739 -3.87104 0.43958 0.732028 -0.520484
3.43698 27.7747 -3.6505 0.45282 0.719146 -0.526887
3.52928 27.8777 -3.42522 0.462695 0.719294 -0.518199
3.63639 28.0061 -3.1321 0.498724 0.734856 -0.457739
3.70524 28.0853 -2.91529 0.533972 0.731347 -0.424107
3.77144 28.1553 -2.70503 0.535586 0.73628 -0.41357
3.83466 28.216 -2.51508 0.572188 0.721696 -0.386624
3.89665 28.2641 -2.29531 0.626448 0.706434 -0.329416
3.95614 28.3047 -2.09522 0.625931 0.705505 -0.332359
4.0134 28.3523 -1.88382 0.65545 0.684286 -0.319589
4.0975 28.3992 -1.50577 0.710208 0.690832 -0.131653
4.13392 28.4087 -1.20367 0.699119 0.707042 -0.10641
4.15661 28.4319 -0.95688 0.675808 0.728643 -0.1063
4.15587 28.4574 -0.720295 0.666537 0.741403 -0.0777804
4.1437 28.4824 -0.499534 0.716767 0.694684 0.0418642
4.11352 28.4863 -0.276888 0.674783 0.731414 0.0891973
4.07594 28.4829 0.00445237 0.634197 0.762219 0.125655
4.03613 28.4687 0.231426 0.625718 0.763829 0.158249
3.98522 28.461 0.469987 0.623677 0.764727 0.161868
3.93266 28.4604 0.670415 0.624054 0.762235 0.171752
3.84524 28.4598 0.980278 0.599644 0.765862 0.225517
3.75321 28.4363 1.24008 0.572812 0.772884 0.273013
3.66222 28.407 1.5166 0.542815 0.782758 0.301048
3.59166 28.374 1.70231 0.515024 0.788685 0.335748
3.48086 28.3215 1.99561 0.522472 0.767689 0.368893
3.38665 28.2672 2.22258 0.534815 0.744306 0.399976
3.29078 28.2179 2.4426 0.495049 0.754485 0.428028
3.14329 28.1817 2.64537 0.452683 0.76028 0.465889
2.95451 28.2461 2.72371 0.45543 0.759526 0.464428
2.73309 28.375 2.73166 0.458177 0.758768 0.462974
2.51341 28.5059 2.72242 0.424306 0.789073 0.444158
2.29606 28.6289 2.70797 0.417982 0.79088 0.446989
2.07602 28.7567 2.69315 0.369284 0.790467 0.483786
1.89239 28.8433 2.66733 0.307062 0.803281 0.510345
1.67593 28.9529 2.63972 0.344962 0.76748 0.540276
1.46602 29.0657 2.61092 0.299865 0.788654 0.534907
1.26357 29.1562 2.5723 0.262134 0.809913 0.524715
1.05909 29.245 2.53571 0.258071 0.792378 0.551956
0.857093 29.3335 2.50892 0.296047 0.851447 0.43289
0.652709 29.4177 2.48297 0.245142 0.873997 0.41549
0.335779 29.4878 2.403 0.0436253 0.879873 0.473202
0.14417 29.5331 2.35508 0.043117 0.841202 0.535475
-0.0828356 29.5735 2.28531 -0.0177318 0.838717 0.544278
-0.29978 29.6011 2.21086 -0.110193 0.920164 0.374584
-0.49214 29.6156 2.13365 -0.081333 0.92321 0.37559
-0.715979 29.6379 2.0304 -0.0973831 0.911001 0.399516
-0.947204 29.6391 1.89327 -0.235303 0.895092 0.378739
-1.15258 29.6432 1.75599 -0.279658 0.884807 0.369804
-1.35601 29.6379 1.60453 -0.308923 0.865372 0.394586
-1.56026 29.6352 1.45044 -0.363787 0.847525 0.381934
-1.77071 29.6079 1.27094 -0.421436 0.830343 0.364587
-1.95396 29.5797 1.10798 -0.428136 0.855969 0.288713
-2.1026 29.544 0.975543 -0.448562 0.85072 0.273986
-2.25594 29.505 0.831903 -0.508089 0.850429 0.131508
-2.38187 29.4452 0.684682 -0.538835 0.833541 0.121932
-2.52382 29.378 0.516773 -0.530791 0.834399 0.146228
-2.6774 29.3167 0.345776 -0.523022 0.835095 0.170484
-2.8262 29.2575 0.179261 -0.547363 0.827126 0.108357
-2.95959 29.1727 0.0077421 -0.598889 0.799697 0.0426235
-3.09045 29.0838 -0.162268 -0.611111 0.790464 0.00446842
-3.2158 28.9763 -0.336627 -0.623331 0.781232 -0.033684
-3.34048 28.8681 -0.507899 -0.638379 0.76704 -0.0585276
-3.44487 28.7624 -0.663909 -0.645538 0.759238 -0.0826929
-3.55219 28.6537 -0.832293 -0.647351 0.759234 -0.0667138
-3.69717 28.5128 -1.02797 -0.661717 0.747677 -0.0557645
-3.78852 28.4076 -1.17238 -0.695634 0.700555 -0.159108
-3.91964 28.2204 -1.42332 -0.685442 0.710026 -0.160738
-3.97194 28.1078 -1.67347 -0.669195 0.718531 -0.188764
-7.43885 24.1929 3.96233 -0.544556 0.783273 0.299902
-7.21609 24.268 4.15011 -0.519928 0.791005 0.322469
-7.06303 24.3146 4.27474 -0.51154 0.776508 0.367911
-6.89698 24.3663 4.39542 -0.509868 0.777339 0.368481
-6.72811 24.4151 4.52401 -0.497894 0.774913 0.389366
-6.56369 24.4553 4.65307 -0.495808 0.775997 0.389875
-6.37834 24.4941 4.81153 -0.484924 0.77192 0.410405
-6.18019 24.5218 4.97509 -0.462465 0.77307 0.434152
-5.97642 24.5492 5.14335 -0.458604 0.770624 0.442417
-5.77949 24.5711 5.30246 -0.450155 0.769942 0.452272
-5.5961 24.5913 5.45141 -0.455145 0.756543 0.469471
-5.41752 24.6024 5.59581 -0.44015 0.753206 0.488824
-5.23423 24.6114 5.747 -0.443407 0.751671 0.488229
-5.03804 24.614 5.90331 -0.411752 0.75845 0.505187
-4.84912 24.6188 6.05004 -0.406391 0.75577 0.513376
-4.63463 24.625 6.20526 -0.398607 0.754275 0.521711
-4.43202 24.6301 6.35271 -0.382704 0.750387 0.538432
-4.24678 24.6257 6.48106 -0.364541 0.747827 0.554849
-4.01015 24.6186 6.64523 -0.352844 0.747315 0.562902
-3.8077 24.6131 6.77406 -0.343394 0.745481 0.57126
-3.60531 24.6103 6.8983 -0.3135 0.749585 0.582524
-3.40688 24.6042 7.00486 -0.295142 0.752434 0.588841
-3.20532 24.5998 7.11158 -0.290237 0.751718 0.592154
-3.0024 24.5963 7.21217 -0.276124 0.755996 0.593486
-2.79584 24.5944 7.31073 -0.256867 0.752381 0.606133
-2.60132 24.5822 7.40013 -0.237613 0.748767 0.61878
-2.3947 24.5675 7.49221 -0.200279 0.757413 0.621382
-2.19922 24.5538 7.56864 -0.192488 0.754874 0.626987
-1.99756 24.5353 7.65487 -0.179453 0.76884 0.61357
-1.80204 24.5097 7.73748 -0.153709 0.774722 0.613335
-1.60451 24.4839 7.81953 -0.143893 0.772792 0.618034
-1.33923 24.4479 7.92129 -0.134254 0.771405 0.622021
-1.05779 24.4123 8.01273 -0.0970569 0.771899 0.628292
-0.831101 24.3834 8.08355 -0.0829431 0.771468 0.630567
-0.604752 24.3323 8.16279 -0.0433671 0.778181 0.626541
-0.393716 24.2879 8.23263 -0.0393956 0.776573 0.628775
-0.185395 24.2381 8.30344 0.00334415 0.783629 0.621221
0.0101632 24.1843 8.37025 0.0138202 0.779584 0.626026
0.220685 24.1207 8.44027 0.0243014 0.775544 0.630826
0.428306 24.0519 8.51916 0.026607 0.798608 0.601225
0.622423 23.9846 8.59239 0.0627044 0.805156 0.589739
0.820473 23.9151 8.66616 0.0660315 0.803697 0.591351
1.02391 23.8407 8.74308 0.0693579 0.802239 0.592961
1.23194 23.767 8.81726 0.0942745 0.81009 0.578661
1.43809 23.6843 8.90212 0.0931273 0.817524 0.568315
1.64363 23.6034 8.98477 0.0935918 0.817223 0.568671
1.84295 23.5236 9.06396 0.124747 0.818471 0.560841
2.05648 23.4341 9.14705 0.12475 0.818471 0.56084
2.27344 23.3423 9.23857 0.116299 0.82581 0.551827
2.50202 23.2397 9.33717 0.133216 0.826539 0.546883
2.7254 23.1368 9.43945 0.131924 0.827918 0.545112
2.96367 23.0149 9.55592 0.156145 0.831667 0.532726
3.16551 22.9067 9.67097 0.151339 0.838406 0.523615
3.36704 22.7842 9.79934 0.178802 0.839391 0.513143
3.55052 22.6691 9.92869 0.175323 0.84576 0.503937
3.77922 22.5248 10.0862 0.186972 0.844998 0.500973
3.97766 22.4152 10.1993 0.185739 0.84891 0.494825
4.2055 22.357 10.2139 0.192588 0.850095 0.490072
4.45654 22.3443 10.1327 0.200225 0.850883 0.485703
4.69607 22.3411 10.0414 0.20429 0.856915 0.472996
4.89675 22.333 9.96263 0.217635 0.85534 0.470111
5.17225 22.3202 9.85923 0.226348 0.853427 0.469386
5.42288 22.2985 9.77184 0.237634 0.852346 0.465872
5.66866 22.2726 9.69392 0.253099 0.851918 0.458124
5.90596 22.233 9.6272 0.268569 0.851482 0.450388
6.11897 22.1939 9.57416 0.263421 0.854991 0.446707
6.40977 22.134 9.50723 0.278364 0.856822 0.434015
6.6729 22.0782 9.44858 0.287035 0.856388 0.429081
6.87441 22.0351 9.39525 0.29663 0.855422 0.424574
7.06765 22.0114 9.30754 0.297559 0.854886 0.425004
7.23306 22.014 9.18308 0.31059 0.855709 0.413879
7.35131 22.0722 8.97131 0.310134 0.861067 0.402964
7.40865 22.1366 8.78955 0.321411 0.859254 0.39777
7.44749 22.2086 8.60301 0.334574 0.849262 0.408397
7.496 22.2948 8.38556 0.338235 0.846642 0.410846
7.53383 22.3688 8.19977 0.33824 0.850341 0.40313
7.58809 22.4702 7.93005 0.360867 0.848302 0.387467
7.64173 22.5502 7.70757 0.362535 0.845645 0.391731
7.69579 22.6269 7.4875 0.365432 0.847699 0.384532
7.75804 22.6952 7.27945 0.376908 0.837923 0.394741
7.85821 22.775 7.00658 0.399319 0.831251 0.386738
7.96768 22.8688 6.68382 0.401345 0.835532 0.375245
8.05005 22.9298 6.45772 0.416976 0.833468 0.362507
8.15142 22.9773 6.23074 0.429444 0.824623 0.368204
8.25908 23.0257 5.99679 0.431492 0.82564 0.363465
8.3878 23.0807 5.71437 0.443701 0.822562 0.355515
8.47885 23.1263 5.48293 0.456117 0.822837 0.338964
8.55964 23.173 5.26072 0.467277 0.819665 0.331066
8.64579 23.2097 5.0446 0.484953 0.809631 0.330633
8.71607 23.2482 4.84713 0.484954 0.809631 0.330632
8.77684 23.2949 4.63312 0.487914 0.814218 0.314624
8.83453 23.3384 4.4163 0.517046 0.80395 0.293815
8.90266 23.3831 4.17461 0.517027 0.803799 0.294263
8.97805 23.42 3.93291 0.539753 0.79921 0.264154
9.04468 23.449 3.69812 0.540304 0.802757 0.252296
9.09835 23.476 3.49709 0.550534 0.798469 0.243216
9.16635 23.5008 3.25181 0.560731 0.793681 0.235905
9.22656 23.5235 3.03405 0.573896 0.787417 0.224348
9.27783 23.5379 2.8176 0.590558 0.784458 0.189384
9.33015 23.5512 2.59936 0.589985 0.786776 0.181186
9.38213 23.5579 2.37935 0.599324 0.784174 0.160876
9.43641 23.5617 2.15828 0.598147 0.787514 0.147848
9.48646 23.5574 1.93514 0.611712 0.782758 0.114449
9.54716 23.547 1.68242 0.613739 0.780224 0.120531
9.60263 23.5322 1.47008 0.61374 0.782377 0.105878
9.65858 23.5161 1.26473 0.618698 0.779635 0.0962117
9.71132 23.4966 1.06009 0.620126 0.780465 0.078965
9.77012 23.4711 0.831989 0.619572 0.782182 0.0653695
9.82185 23.447 0.606227 0.622546 0.78033 0.059341
9.86135 23.4328 0.371168 0.623622 0.780338 0.045688
9.88847 23.4214 0.156214 0.627348 0.777813 0.0379578
9.92326 23.4074 -0.131255 0.623736 0.781047 0.0283318
9.94289 23.3962 -0.36908 0.620686 0.783929 0.0142772
9.95667 23.3896 -0.604312 0.626 0.779552 -0.00455162
9.95828 23.3802 -0.838544 0.622925 0.781551 -0.0338011
9.95063 23.3767 -1.06101 0.622925 0.781551 -0.0337978
9.93119 23.3772 -1.30921 0.625975 0.778379 -0.0477626
9.9095 23.3821 -1.52711 0.630415 0.773721 -0.0604736
9.86494 23.3939 -1.77438 0.631549 0.771511 -0.0769229
9.82365 23.4044 -2.02398 0.614057 0.785331 -0.0776494
9.7991 23.3923 -2.26201 0.594632 0.796757 -0.107663
9.77551 23.3775 -2.50189 0.594994 0.794627 -0.119976
9.74134 23.3674 -2.71624 0.595353 0.792499 -0.132289
9.65896 23.3461 -3.13119 0.584849 0.791219 -0.178572
9.60506 23.3276 -3.39299 0.580985 0.794601 -0.176254
9.55398 23.3065 -3.63698 0.565623 0.800083 -0.199843
9.47514 23.2801 -3.96562 0.566367 0.799184 -0.20132
9.4292 23.2529 -4.18257 0.559032 0.799745 -0.218841
9.38584 23.2245 -4.39746 0.555675 0.798541 -0.231073
9.34981 23.1897 -4.59323 0.548836 0.801064 -0.238809
9.30936 23.1484 -4.82916 0.543866 0.804203 -0.239659
9.27335 23.1079 -5.04169 0.542374 0.803615 -0.245016
9.23837 23.0667 -5.25553 0.534276 0.807358 -0.250169
9.20263 23.0168 -5.48175 0.528906 0.807225 -0.262004
9.16965 22.9649 -5.70806 0.526535 0.806418 -0.269064
9.13895 22.9077 -5.93547 0.513789 0.816148 -0.264431
9.11468 22.8477 -6.1681 0.510106 0.815022 -0.274613
9.09143 22.7785 -6.40708 0.506418 0.813898 -0.2848
9.07395 22.7067 -6.6505 0.496162 0.82343 -0.275284
9.06078 22.6327 -6.89373 0.495358 0.823211 -0.277389
9.05099 22.5576 -7.13898 0.485112 0.832478 -0.267652
9.04415 22.483 -7.38072 0.484005 0.832209 -0.270496
9.04061 22.4061 -7.6285 0.469854 0.842431 -0.26355
9.03964 22.3376 -7.84222 0.465979 0.841908 -0.27213
9.04547 22.2493 -8.11585 0.452182 0.852914 -0.260686
9.04957 22.176 -8.34244 0.443431 0.857632 -0.260311
9.07705 22.1056 -8.53466 0.441929 0.860808 -0.252406
9.10349 22.0374 -8.72077 0.440605 0.863596 -0.24493
9.13305 21.9689 -8.91045 0.431418 0.867208 -0.248653
9.16902 21.8966 -9.1003 0.429793 0.869101 -0.244786
9.20865 21.8221 -9.29923 0.428162 0.870994 -0.240929
9.2515 21.7451 -9.49234 0.413531 0.876347 -0.246692
9.30352 21.6667 -9.69437 0.409332 0.881275 -0.236222
9.35442 21.5888 -9.89599 0.410897 0.881972 -0.230751
9.38227 21.5236 -10.0933 0.399132 0.884666 -0.240957
9.27411 21.5116 -10.3165 0.388496 0.889204 -0.241356
9.10366 21.5389 -10.4671 0.371429 0.890302 -0.263445
8.93672 21.5721 -10.5905 0.358501 0.893139 -0.271192
8.75491 21.5974 -10.7345 0.345952 0.897816 -0.272392
8.56139 21.6271 -10.8859 0.319714 0.905133 -0.278599
8.27547 21.6529 -11.0929 0.290851 0.909116 -0.298095
8.10425 21.6699 -11.2027 0.284809 0.908864 -0.304714
7.75665 21.6985 -11.4192 0.253946 0.908582 -0.33147
7.54068 21.709 -11.5498 0.243804 0.912046 -0.329746
7.23937 21.7057 -11.7384 0.205127 0.90691 -0.368017
7.01844 21.6969 -11.8842 0.200426 0.903644 -0.378248
6.82544 21.6899 -11.9961 0.18933 0.905571 -0.379598
6.62477 21.6818 -12.1155 0.176849 0.904538 -0.387702
6.4156 21.6714 -12.227 0.177847 0.898122 -0.402178
6.21244 21.664 -12.3332 0.16138 0.896901 -0.411303
5.99526 21.6397 -12.46 0.144911 0.895679 -0.420427
5.78331 21.616 -12.5859 0.127205 0.901587 -0.413021
5.58127 21.5873 -12.7023 0.122122 0.89584 -0.427268
5.39265 21.5618 -12.8097 0.122118 0.895841 -0.427267
5.20696 21.5345 -12.9086 0.101148 0.89183 -0.440918
5.02234 21.5091 -13.0028 0.092957 0.887346 -0.451391
4.82513 21.4805 -13.0927 0.0823629 0.883493 -0.461147
4.61041 21.4512 -13.1873 0.0742399 0.878724 -0.471313
4.36507 21.4169 -13.283 0.065733 0.874004 -0.481453
4.11498 21.3844 -13.3736 0.0452153 0.869812 -0.491093
3.83141 21.3555 -13.4439 0.0362768 0.864546 -0.501243
3.60576 21.368 -13.4382 0.034436 0.864707 -0.501094
3.32316 21.4543 -13.3087 0.0377728 0.860071 -0.508686
3.12187 21.5534 -13.1557 0.0278006 0.856668 -0.515119
2.94153 21.6558 -12.9951 0.0284129 0.855751 -0.516604
2.73914 21.7603 -12.8295 0.00933523 0.85729 -0.514749
2.52574 21.8683 -12.6535 0.0122163 0.851241 -0.524499
2.32512 21.9687 -12.4981 0.00597196 0.846359 -0.532579
2.11476 22.0674 -12.3435 0.0063123 0.845616 -0.533753
1.87236 22.1746 -12.1747 -5.17404e-05 0.845877 -0.533378
1.66359 22.2597 -12.0397 -0.00598511 0.842883 -0.538003
1.40529 22.367 -11.8707 -0.0108746 0.835161 -0.549899
1.20495 22.4533 -11.7357 -0.0099335 0.834601 -0.550764
1.03619 22.5245 -11.6235 -0.0253447 0.833069 -0.552588
0.869471 22.591 -11.5157 -0.0253446 0.833069 -0.552588
0.692142 22.6629 -11.4078 -0.00986666 0.824129 -0.566316
0.505819 22.7301 -11.297 -0.0540397 0.818033 -0.572601
0.232956 22.8204 -11.1452 -0.0591702 0.815995 -0.574957
-0.0459555 22.9057 -10.9927 -0.0665641 0.812932 -0.578543
-0.307661 22.9801 -10.8549 -0.0730505 0.814119 -0.576085
-0.525545 23.0379 -10.7454 -0.0729147 0.809818 -0.582085
-0.764595 23.0918 -10.6357 -0.0970124 0.795158 -0.598591
-0.992955 23.1432 -10.5304 -0.104339 0.797987 -0.5935
-1.31692 23.2124 -10.3668 -0.134308 0.790199 -0.597952
-1.5271 23.2515 -10.2634 -0.145248 0.79143 -0.593752
-1.71716 23.2878 -10.1685 -0.145125 0.789548 -0.596273
-1.93248 23.3238 -10.0641 -0.157017 0.788988 -0.594006
-2.13586 23.3584 -9.9643 -0.165422 0.789461 -0.591022
-2.33856 23.3871 -9.86584 -0.173829 0.789935 -0.588036
-2.54414 23.419 -9.76336 -0.181921 0.7858 -0.591035
-2.74577 23.4469 -9.66037 -0.191489 0.785932 -0.587914
-3.01484 23.4842 -9.52253 -0.208701 0.779097 -0.59101
-3.27156 23.5143 -9.38049 -0.235267 0.772796 -0.589437
-3.509 23.5398 -9.25226 -0.245401 0.776305 -0.58046
-3.71733 23.5559 -9.13582 -0.268144 0.774883 -0.572412
-3.93785 23.5704 -9.01289 -0.271755 0.776389 -0.56863
-4.13988 23.5805 -8.90054 -0.275366 0.777894 -0.564849
-4.34506 23.5865 -8.78704 -0.291912 0.773485 -0.562591
-4.586 23.5918 -8.64713 -0.308358 0.782261 -0.541255
-4.78573 23.5955 -8.52599 -0.313261 0.781125 -0.540103
-4.98391 23.597 -8.40724 -0.331462 0.783783 -0.525002
-5.17109 23.5905 -8.29341 -0.345483 0.779553 -0.522432
-5.391 23.5804 -8.16281 -0.35939 0.775551 -0.518812
-5.59338 23.5644 -8.03684 -0.378157 0.781104 -0.496863
-5.79288 23.5505 -7.90688 -0.382365 0.780093 -0.495207
-5.9705 23.5413 -7.78232 -0.38657 0.779082 -0.493552
-6.17212 23.5316 -7.63377 -0.406911 0.782234 -0.471414
-6.39204 23.5123 -7.46622 -0.422457 0.778159 -0.464756
-6.58599 23.4957 -7.31279 -0.431577 0.78462 -0.44507
-6.75675 23.4727 -7.1853 -0.435766 0.783867 -0.442335
-6.98475 23.444 -7.01222 -0.440728 0.784981 -0.435286
-7.18175 23.4173 -6.85442 -0.448142 0.789572 -0.41922
-7.37321 23.3885 -6.704 -0.455756 0.789109 -0.411678
-7.53655 23.3596 -6.57337 -0.455736 0.792925 -0.404443
-7.73859 23.3216 -6.42014 -0.455736 0.792925 -0.404443
-7.90628 23.2846 -6.29454 -0.480363 0.791336 -0.377923
-8.06136 23.2443 -6.1748 -0.493138 0.785435 -0.374041
-8.25511 23.1923 -6.02429 -0.485805 0.803006 -0.345141
-8.44386 23.1392 -5.88449 -0.480681 0.807311 -0.342338
-8.68437 23.067 -5.70166 -0.498026 0.803104 -0.3271
-8.86266 23.0109 -5.57763 -0.472394 0.821815 -0.318515
-9.05332 22.9433 -5.46476 -0.47795 0.827165 -0.295571
-9.26608 22.8657 -5.33789 -0.477405 0.827377 -0.295856
-9.44449 22.801 -5.23134 -0.476859 0.82759 -0.296141
-9.62081 22.7372 -5.12752 -0.467465 0.834517 -0.291633
-9.79743 22.673 -5.02725 -0.467698 0.837513 -0.282542
-9.97581 22.6061 -4.93028 -0.468635 0.837125 -0.282138
-10.1697 22.5333 -4.82326 -0.46958 0.836731 -0.281737
-10.3589 22.4622 -4.71939 -0.460964 0.841603 -0.281346
-10.5807 22.3759 -4.60929 -0.463393 0.844275 -0.269196
-10.8034 22.2854 -4.5098 -0.457911 0.847168 -0.269417
-11.0002 22.2024 -4.42937 -0.470828 0.847904 -0.243682
-11.2271 22.1059 -4.32682 -0.462675 0.852927 -0.241561
-11.5059 21.9914 -4.20334 -0.458976 0.856459 -0.23626
-11.7549 21.8829 -4.10938 -0.468976 0.856138 -0.216751
-11.9368 21.801 -4.0433 -0.454269 0.868702 -0.197474
-12.1167 21.7209 -3.98172 -0.474947 0.85956 -0.186978
-12.2979 21.6281 -3.92007 -0.495627 0.850417 -0.176479
-12.6159 21.4682 -3.82565 -0.471696 0.862741 -0.181879
-12.8637 21.3433 -3.76797 -0.465621 0.867542 -0.17452
-13.0568 21.2506 -3.72698 -0.456393 0.872053 -0.176715
-13.2702 21.1512 -3.67223 -0.445264 0.878844 -0.171257
-13.4635 21.0744 -3.56404 -0.447654 0.881793 -0.148481
-13.6218 21.0548 -3.2033 -0.448141 0.881435 -0.149133
-13.6806 21.0575 -2.98318 -0.440124 0.888705 -0.128433
-13.736 21.0619 -2.76259 -0.445151 0.888588 -0.10882
-13.7867 21.063 -2.49576 -0.450171 0.888475 -0.0892095
-13.8238 21.0711 -2.23795 -0.462871 0.881953 -0.0880919
-13.8592 21.0706 -1.98147 -0.48177 0.874231 -0.0601489
-13.8887 21.0737 -1.70078 -0.479594 0.875804 -0.0539618
-13.9134 21.073 -1.44299 -0.480952 0.875795 -0.0408363
-13.944 21.0696 -1.15521 -0.478995 0.877013 -0.037337
-13.9739 21.0595 -0.870746 -0.480328 0.876928 -0.0160854
-13.995 21.0529 -0.613134 -0.479193 0.877624 -0.00884261
-14.0074 21.0428 -0.369112 -0.469251 0.882887 0.0177004
-14.0127 21.0348 -0.111662 -0.473746 0.880215 0.0262121
-14.001 21.0273 0.175101 -0.470587 0.88102 0.0484935
-13.9228 21.0489 0.54179 -0.477683 0.876464 0.0587672
-13.7128 21.1428 0.767294 -0.475535 0.875899 0.0816507
-13.526 21.2358 0.857872 -0.475538 0.875898 0.0816534
-13.2849 21.3634 0.935893 -0.486615 0.870271 0.0763837
-13.0735 21.477 0.987802 -0.478861 0.874765 0.0736675
-12.8251 21.6033 1.06349 -0.470009 0.879347 0.0764219
-12.5697 21.7332 1.14015 -0.470514 0.879063 0.0765811
-12.3432 21.8476 1.21032 -0.468228 0.88 0.0797706
-12.1173 21.9616 1.27847 -0.476971 0.874976 0.0824989
-11.8987 22.0757 1.34482 -0.480923 0.87211 0.0902118
-11.6784 22.1899 1.41519 -0.481424 0.871816 0.090374
-11.4667 22.3011 1.49198 -0.489549 0.866067 0.100063
-11.2538 22.4101 1.58106 -0.491559 0.863182 0.115259
-11.0666 22.5057 1.66866 -0.494667 0.861335 0.115788
-10.8795 22.6009 1.75975 -0.493054 0.862059 0.117248
-10.7123 22.6849 1.84173 -0.491446 0.86278 0.118708
-10.5269 22.7791 1.93234 -0.489602 0.862418 0.128141
-10.2927 22.8929 2.04014 -0.495822 0.857103 0.138916
-10.1188 22.9837 2.11203 -0.497942 0.85212 0.161074
-9.92175 23.0832 2.20004 -0.512566 0.843401 0.161091
-9.75917 23.1663 2.28231 -0.512566 0.843402 0.161091
-9.53602 23.2739 2.41758 -0.516876 0.83899 0.169731
-9.30218 23.3893 2.57582 -0.526349 0.832988 0.170553
-9.14476 23.4626 2.67553 -0.518983 0.83151 0.197997
-8.97273 23.5416 2.80193 -0.524515 0.828602 0.195711
-8.77858 23.6326 2.94502 -0.532027 0.820581 0.208652
-8.61437 23.7049 3.07146 -0.526474 0.822991 0.213335
-8.45198 23.7771 3.19192 -0.521282 0.822147 0.228572
-8.27406 23.8575 3.31558 -0.536424 0.809564 0.238443
-8.09517 23.938 3.44467 -0.525164 0.812665 0.251913
-7.90377 24.018 3.58267 -0.539515 0.798177 0.268025
-7.72195 24.0921 3.72809 -0.52786 0.801218 0.281236
-7.56364 24.1469 3.85577 -0.530381 0.793767 0.297174
-7.52613 24.1614 3.88608 -0.544557 0.783273 0.299902
