-15.8306 141.806 -0.505681 -0.470716 0.881625 -0.0234004
-15.6697 141.667 -2.54417 -0.435142 0.888797 -0.143841
-15.496 141.419 -4.59701 -0.431115 0.89035 -0.146344
-15.1656 141.205 -6.55705 -0.422205 0.8864 -0.189834
-14.6695 141.024 -8.51548 -0.413418 0.89356 -0.175032
-14.0146 140.976 -10.4118 -0.39626 0.904995 -0.154798
-13.2772 140.933 -12.2967 -0.342754 0.893044 -0.291533
-12.3396 140.572 -14.1129 -0.252485 0.933179 -0.255788
-11.1476 140.441 -15.7561 -0.210686 0.945368 -0.247986
-9.27706 140.47 -16.6805 -0.0917139 0.944239 -0.316231
-7.24004 140.528 -16.9336 -0.056004 0.947649 -0.314364
-5.21366 140.697 -16.8985 -0.0885196 0.932589 -0.349918
-3.24681 140.972 -16.6205 -0.0473218 0.923716 -0.380144
-1.28748 141.165 -16.1528 0.0742003 0.895511 -0.43881
0.728394 141.263 -15.4591 0.114657 0.89184 -0.437577
2.68305 141.44 -14.633 0.108978 0.879956 -0.462385
4.63373 141.561 -13.6841 0.189636 0.882694 -0.429987
6.44484 141.622 -12.7263 0.233309 0.885664 -0.401455
8.23922 141.488 -11.6395 0.303861 0.888417 -0.34407
9.82719 141.422 -10.3633 0.312444 0.891721 -0.327433
11.3401 141.35 -9.03225 0.316394 0.906318 -0.280148
12.6763 141.224 -7.53636 0.390046 0.894224 -0.219609
13.9253 141.035 -5.92202 0.386721 0.909956 -0.149756
15.1296 140.789 -4.30387 0.374444 0.917193 -0.136179
16.3017 140.536 -2.66198 0.372146 0.922672 -0.10091
16.3553 140.693 -0.688293 0.363658 0.930583 -0.0342401
15.768 140.853 1.24404 0.368043 0.92793 0.0590853
14.9139 141.026 3.21359 0.369659 0.919967 0.128939
13.7557 141.22 4.84632 0.379714 0.907661 0.178225
12.2198 141.464 6.39562 0.384668 0.881693 0.273219
12.0574 141.644 6.04259 0.383836 0.882239 0.272626
12.8506 141.72 4.19546 0.388868 0.905347 0.17067
13.3077 141.799 2.21154 0.416878 0.906386 0.068388
13.4875 141.834 0.122097 0.408098 0.912422 0.0305511
13.2906 141.826 -1.86679 0.400197 0.912762 -0.0818961
12.8455 141.836 -3.86254 0.412485 0.902828 -0.121478
12.1913 141.832 -5.78459 0.401178 0.899747 -0.171649
11.1902 141.848 -7.5214 0.349951 0.904155 -0.244931
9.95397 141.831 -9.09624 0.331558 0.89691 -0.292471
8.42782 141.837 -10.5465 0.305614 0.891213 -0.335172
6.70913 141.965 -11.7435 0.292609 0.890959 -0.347236
4.76953 142.021 -12.6829 0.183308 0.882823 -0.432459
2.75121 142.119 -13.3052 0.152924 0.879202 -0.451241
0.722449 142.217 -13.6025 0.0993541 0.885793 -0.453321
-1.29149 142.342 -13.5467 -0.0175996 0.929664 -0.367989
-3.31003 142.393 -13.1307 -0.0716838 0.922061 -0.380348
-5.25586 142.493 -12.5052 -0.0801804 0.917934 -0.388546
-7.05773 142.724 -11.6341 -0.0475242 0.933701 -0.354697
-8.81222 142.939 -10.4143 -0.129006 0.966758 -0.219755
-10.2859 142.846 -9.05583 -0.369543 0.918117 -0.143178
-11.4711 142.703 -7.30951 -0.37356 0.904275 -0.206734
-12.4783 142.713 -5.38174 -0.395649 0.899394 -0.185884
-13.1707 142.761 -3.4969 -0.462317 0.868696 -0.177837
-13.6376 142.9 -1.49158 -0.484994 0.870404 -0.0847206
-13.7198 142.872 0.640715 -0.434789 0.900106 0.0277027
-13.5076 142.929 2.69695 -0.440287 0.897528 0.0242354
-12.9659 142.999 4.68913 -0.411438 0.898323 0.15406
-12.1578 142.986 6.52536 -0.342036 0.914648 0.215479
-10.9478 142.87 8.36863 -0.291163 0.91829 0.268267
-9.48955 142.846 9.88721 -0.214197 0.927898 0.303202
-7.83971 142.629 11.1568 -0.132893 0.923729 0.359254
-6.09974 142.478 12.1881 -0.0980627 0.920006 0.379436
-4.2481 142.307 12.9284 -0.076343 0.912442 0.402022
-2.2706 142.166 13.4001 0.0818438 0.892158 0.444247
-0.257464 141.895 13.4937 0.108237 0.891839 0.439213
1.69974 141.693 13.3648 0.14764 0.894447 0.422099
0.52861 141.527 14.0487 0.110783 0.893586 0.435007
-1.4314 141.498 14.6052 0.0826936 0.891712 0.444394
-3.4948 141.321 15.03 -0.00970847 0.879823 0.475203
-5.48513 141.038 15.4986 -0.0235061 0.897964 0.439441
-7.43789 140.665 15.9178 -0.0964323 0.910507 0.402093
-9.40529 140.394 15.9693 -0.0999922 0.899999 0.423983
-11.1902 140.624 14.7988 -0.265368 0.89403 0.360957
-12.4049 140.807 13.1889 -0.352825 0.878877 0.321075
-13.2436 141.113 11.3734 -0.344391 0.890225 0.298151
-14.0263 141.442 9.55838 -0.335317 0.885039 0.322908
-14.777 141.71 7.53198 -0.439326 0.879339 0.183728
-15.2495 141.795 5.47071 -0.461634 0.875078 0.145176
-15.5749 141.852 3.32421 -0.481326 0.876419 0.0146607
-15.6968 141.827 1.27625 -0.471543 0.881408 0.0275225
-15.8286 141.808 -0.345336 -0.456733 0.889512 0.00406804
-21.1905 138.555 -0.554375 -0.490052 0.871472 -0.0196373
-21.0781 138.525 -2.70504 -0.454797 0.889801 -0.0375845
-21.0084 138.477 -4.86398 -0.44671 0.894119 -0.0316419
-20.8015 138.488 -6.85477 -0.439212 0.894764 -0.0804409
-20.4007 138.444 -8.85007 -0.408594 0.903749 -0.127625
-19.9103 138.396 -10.796 -0.393567 0.912268 -0.11345
-19.1776 138.491 -12.6626 -0.389726 0.913113 -0.119741
-18.4968 138.408 -14.646 -0.359094 0.911681 -0.199723
-17.6398 138.338 -16.5134 -0.357381 0.912661 -0.198274
-16.6423 138.254 -18.3034 -0.304801 0.92435 -0.229505
-15.37 138.259 -19.8512 -0.254142 0.929898 -0.2649
-13.7999 138.153 -21.1554 -0.175845 0.93627 -0.304099
-11.8997 138.193 -21.9165 -0.123397 0.924443 -0.360801
-9.95798 138.19 -22.5543 -0.121057 0.924907 -0.360406
-7.842 138.325 -22.7651 -0.0540254 0.910099 -0.410591
-5.83103 138.385 -22.7018 0.0216306 0.917922 -0.396159
-3.72502 138.346 -22.5301 0.0749438 0.911862 -0.403593
-1.59605 138.36 -22.056 0.0848105 0.912218 -0.400832
0.436645 138.401 -21.5121 0.104801 0.908084 -0.405455
2.3399 138.396 -20.8103 0.182098 0.893084 -0.411385
4.25931 138.423 -19.9387 0.177551 0.892001 -0.415618
6.11292 138.498 -19.029 0.180382 0.876546 -0.44624
8.0328 138.553 -18.1203 0.204865 0.868549 -0.451223
9.80677 138.585 -17.1748 0.250862 0.872564 -0.419164
11.5455 138.55 -16.0611 0.283502 0.878138 -0.385356
13.1141 138.535 -14.7937 0.306759 0.888085 -0.342349
14.6705 138.496 -13.4997 0.30939 0.887792 -0.340738
16.2599 138.457 -11.9801 0.342916 0.889448 -0.302143
17.5289 138.433 -10.4144 0.375314 0.890055 -0.258705
18.8081 138.394 -8.86241 0.320017 0.911176 -0.259514
20.1014 138.362 -7.23066 0.34521 0.91345 -0.215163
21.3005 138.228 -5.57252 0.332632 0.934003 -0.130365
22.2457 138.129 -3.65676 0.298705 0.948525 -0.105242
22.6201 138.091 -1.66254 0.305603 0.952112 -0.00949671
22.0214 138.287 0.254767 0.355107 0.933643 0.0469536
21.3464 138.373 2.36942 0.417539 0.901451 0.113884
20.6379 138.419 4.50495 0.394621 0.907146 0.146154
19.6563 138.409 6.32361 0.35434 0.899819 0.254388
18.3412 138.452 7.94033 0.359297 0.894727 0.265271
17.0457 138.496 9.51757 0.363409 0.888051 0.281602
15.5444 138.591 10.8938 0.339282 0.877728 0.33835
13.9782 138.629 12.2205 0.31444 0.870586 0.37841
12.39 138.64 13.4935 0.313394 0.868748 0.383485
10.8137 138.632 14.7574 0.295597 0.867485 0.400115
8.93106 138.659 15.9298 0.261547 0.867853 0.42239
7.09414 138.649 16.947 0.222433 0.874211 0.4316
5.22928 138.642 17.9103 0.198971 0.881955 0.427256
3.35247 138.57 18.8095 0.159319 0.886991 0.433432
1.45137 138.537 19.5489 0.136256 0.882042 0.451039
-0.570101 138.513 20.0679 0.101072 0.89627 0.431839
-2.57161 138.459 20.5878 0.0922094 0.900286 0.425386
-4.62135 138.391 21.1407 0.0596957 0.914943 0.399143
-6.55231 138.259 21.6537 0.0163536 0.929837 0.367609
-8.67991 138.127 21.8753 -0.0332658 0.927383 0.372608
-10.6853 138.013 21.9786 -0.0397094 0.94746 0.317401
-12.5193 138.132 20.8793 -0.232871 0.923765 0.304022
-14.2215 138.096 19.6259 -0.242629 0.924621 0.293427
-15.7996 138.098 18.3532 -0.248586 0.925851 0.284613
-16.9123 138.226 16.6825 -0.298353 0.926861 0.227847
-17.8997 138.351 14.8573 -0.326505 0.91961 0.21837
-18.7214 138.485 12.9331 -0.358697 0.909787 0.208863
-19.4956 138.569 10.982 -0.44119 0.883594 0.156872
-20.007 138.589 8.94795 -0.470209 0.876016 0.107237
-20.4164 138.623 6.88662 -0.482644 0.869356 0.106158
-20.7833 138.657 4.82511 -0.487298 0.86757 0.0993167
-21.0622 138.679 2.78023 -0.510998 0.859556 -0.00306458
-21.1715 138.592 0.693041 -0.509007 0.860627 -0.0147928
-21.1944 138.556 -0.430376 -0.490052 0.871472 -0.0196399
-8.0343 145.224 -0.0301763 -0.330738 0.941861 -0.0565206
-7.81732 145.237 2.01942 -0.286449 0.955378 0.0721066
-7.00086 145.186 3.8848 -0.208205 0.965209 0.158186
-5.8074 145.022 5.48134 -0.120463 0.954086 0.274243
-4.24347 144.812 6.71471 -0.0932893 0.941601 0.32355
-2.37326 144.622 7.55961 -0.0401328 0.93065 0.363704
-0.357371 144.488 7.90771 0.0569335 0.915793 0.396935
1.62468 144.306 7.77276 0.122364 0.908618 0.399295
3.53646 144.308 7.03453 0.181409 0.916377 0.35652
5.30451 144.265 5.81165 0.282977 0.926244 0.248989
6.70676 144.233 4.20426 0.299181 0.926292 0.229072
7.59482 144.31 2.2279 0.344215 0.928672 0.137841
7.8422 144.398 0.200493 0.372907 0.927512 0.0257298
7.61467 144.381 -1.9712 0.37663 0.918522 -0.11934
6.86061 144.37 -3.85362 0.360646 0.91245 -0.193313
5.6387 144.426 -5.50172 0.327084 0.908268 -0.260796
4.03173 144.538 -6.80658 0.255875 0.916712 -0.306818
2.16632 144.676 -7.61993 0.144479 0.92447 -0.352794
0.0693329 144.758 -7.93392 0.0594534 0.930305 -0.361936
-2.10191 144.875 -7.63959 -0.0374809 0.949631 -0.310813
-3.95397 144.946 -6.88437 -0.148669 0.936196 -0.318487
-5.67722 145.05 -5.59716 -0.206519 0.93849 -0.276477
-6.88773 145.115 -3.95195 -0.307113 0.934978 -0.177477
-7.66742 145.137 -2.09561 -0.323823 0.939239 -0.113879
-8.01919 145.214 -0.230119 -0.324052 0.943222 -0.0729589
-8.02442 145.218 -0.152994 -0.324052 0.943222 -0.0729589
