-20.4713 141.05 0.961739 -0.54684 0.83704 -0.0181721
-20.4002 141.123 2.98318 -0.546635 0.837363 0.00138048
-20.1859 141.127 5.04826 -0.537968 0.840021 0.0703935
-19.8308 141.146 7.24458 -0.543198 0.833686 0.099516
-19.3796 141.178 9.36441 -0.536031 0.836566 0.112986
-18.8393 141.013 11.3848 -0.391513 0.887305 0.2437
-18.1345 140.805 13.2529 -0.384575 0.887663 0.253217
-17.3291 140.524 15.0968 -0.305358 0.909877 0.280856
-16.4245 140.27 16.9797 -0.3004 0.916057 0.265704
-15.5131 140.023 18.7635 -0.274729 0.904325 0.326681
-14.3799 139.722 20.4285 -0.25844 0.902251 0.345183
-12.6545 139.705 21.5572 -0.175039 0.911957 0.371073
-10.6678 139.854 21.7318 -0.0970135 0.917167 0.386418
-8.67812 140.061 21.623 -0.0391445 0.911137 0.41024
-6.55526 140.183 21.3385 0.0331228 0.908147 0.41734
-4.48301 140.402 20.798 0.0170371 0.886004 0.463365
-2.45163 140.631 20.3038 0.0225513 0.864815 0.501585
-0.412711 140.811 19.6765 0.111279 0.85045 0.514084
1.46274 140.854 18.9646 0.20607 0.84772 0.488781
3.35813 140.839 18.1322 0.222967 0.845217 0.485689
5.16799 140.891 17.2035 0.222282 0.861457 0.456599
6.97267 140.914 16.2051 0.236088 0.866963 0.438905
8.79164 140.882 15.275 0.257276 0.86114 0.438382
10.4701 140.852 14.1742 0.305743 0.863032 0.402116
12.209 140.853 12.847 0.311978 0.858151 0.407734
13.8236 140.833 11.5226 0.340514 0.86175 0.376081
15.5309 140.749 10.148 0.344832 0.872553 0.346037
16.962 140.637 8.75622 0.380721 0.879855 0.284442
18.2734 140.581 7.24503 0.371347 0.887936 0.271426
19.6143 140.432 5.62672 0.38257 0.90058 0.206385
20.8607 140.315 3.84436 0.3903 0.895172 0.215252
21.891 140.221 1.93762 0.4684 0.869693 0.155678
22.4546 140.195 -0.00860266 0.467648 0.879725 0.0845587
22.8138 139.935 -1.98202 0.408775 0.90788 -0.0930389
22.061 140.065 -3.93987 0.402039 0.91018 -0.0996892
20.9664 140.324 -5.68912 0.388249 0.914955 -0.110089
19.7365 140.593 -7.36924 0.394516 0.889435 -0.230776
18.4618 140.693 -8.915 0.422899 0.858339 -0.290534
17.1505 140.817 -10.4469 0.412374 0.853658 -0.318145
15.5916 140.879 -11.9487 0.365806 0.858832 -0.358599
13.9045 140.96 -13.2735 0.343513 0.846347 -0.407057
12.2356 140.987 -14.6083 0.325854 0.850837 -0.412154
10.5817 141.01 -15.8058 0.313275 0.850074 -0.423359
8.78568 141.04 -16.9488 0.267185 0.844934 -0.463355
7.02761 140.942 -17.8962 0.200125 0.850154 -0.487019
5.1525 140.856 -18.8182 0.200943 0.850339 -0.48636
3.21695 140.797 -19.7194 0.187299 0.855306 -0.483081
1.28611 140.757 -20.4321 0.123836 0.879463 -0.459576
-0.635691 140.676 -21.0873 0.120474 0.886353 -0.447054
-2.67147 140.675 -21.6701 0.126842 0.890785 -0.436363
-4.77879 140.657 -22.1271 0.0304898 0.906416 -0.42127
-6.92119 140.651 -22.3219 0.0256558 0.914013 -0.404764
-9.08054 140.465 -22.4325 -0.113437 0.895197 -0.430992
-11.1798 140.152 -22.41 -0.138635 0.896343 -0.421128
-13.2677 140.113 -21.7093 -0.199272 0.906901 -0.371206
-14.9485 140.203 -20.4438 -0.192409 0.921263 -0.338012
-16.242 140.508 -18.8553 -0.202451 0.919701 -0.336398
-17.585 140.449 -17.3793 -0.393626 0.917441 -0.0579666
-18.2589 140.425 -15.5042 -0.37217 0.912142 -0.171711
-18.8004 140.577 -13.528 -0.369878 0.915114 -0.160491
-19.2573 140.583 -11.3958 -0.425182 0.902895 -0.0616347
-19.6427 140.592 -9.40856 -0.43598 0.89354 -0.107276
-19.9744 140.678 -7.32653 -0.429878 0.896203 -0.10958
-20.2905 140.778 -5.25872 -0.524703 0.848014 -0.0745555
-20.4159 140.861 -3.19104 -0.537714 0.840644 -0.0646712
-20.4571 140.984 -1.16625 -0.543473 0.837994 -0.0488314
-20.4707 141.047 0.800152 -0.545411 0.837956 -0.0187705
-24.5713 138.426 0.950744 -0.521959 0.852909 -0.0102473
-24.4903 138.474 2.95061 -0.546068 0.837321 0.0265272
-24.2932 138.462 5.09396 -0.548433 0.832523 0.0782497
-24.0248 138.43 7.1519 -0.541074 0.836656 0.0851205
-23.6364 138.49 9.17607 -0.534607 0.841693 0.0758174
-23.2041 138.542 11.2307 -0.552624 0.826921 0.103926
-22.6919 138.574 13.2399 -0.5606 0.806443 0.188092
-22.0264 138.521 15.1318 -0.476711 0.845318 0.241213
-21.2726 138.37 17.0907 -0.421978 0.867866 0.261347
-20.4236 138.169 18.898 -0.404427 0.871724 0.276652
-19.5568 138.111 20.7358 -0.376411 0.904809 0.199089
-18.5349 138.016 22.4871 -0.236735 0.937782 0.253892
-17.1548 137.882 24.0609 -0.196584 0.944679 0.262558
-15.4619 137.886 25.3138 -0.197882 0.944701 0.261501
-13.599 137.959 26.0734 -0.0589071 0.938533 0.340127
-11.5176 137.983 26.2647 -0.0232064 0.941492 0.336235
-9.50239 138.031 26.1928 0.00915532 0.922799 0.385173
-7.34838 138.081 26.0219 0.0263619 0.900321 0.43432
-5.31603 138.178 25.6339 0.0578279 0.891267 0.449739
-3.39204 138.258 25.0508 0.137457 0.889872 0.435009
-1.47708 138.221 24.4821 0.111752 0.88212 0.457543
0.458779 138.314 23.8657 0.111831 0.880599 0.460476
2.38451 138.337 23.1693 0.176631 0.867641 0.464758
4.2937 138.349 22.4039 0.183344 0.866248 0.464758
6.18178 138.413 21.4291 0.246251 0.848222 0.468914
8.10939 138.397 20.4265 0.250752 0.847674 0.467517
10.0828 138.372 19.3838 0.273133 0.850374 0.449735
11.8526 138.375 18.272 0.280033 0.852743 0.440921
13.6938 138.349 17.0605 0.315659 0.856246 0.408903
15.366 138.367 15.7154 0.318082 0.857128 0.405161
17.0212 138.376 14.368 0.336137 0.856653 0.391353
18.6448 138.303 13.0503 0.340874 0.868238 0.360511
20.139 138.303 11.614 0.357049 0.866663 0.348383
21.5788 138.286 10.0322 0.366503 0.877823 0.308387
22.9725 138.238 8.43382 0.393127 0.8809 0.263036
24.1847 138.138 6.73598 0.413312 0.877651 0.242696
25.2948 138.056 4.86762 0.387902 0.910993 0.139543
26.0783 138 2.96853 0.391528 0.909046 0.142624
26.6927 138.017 1.04933 0.380972 0.916859 0.119283
27.3592 137.99 -0.965017 0.356141 0.930901 0.0811607
27.3405 137.927 -3.03049 0.333035 0.938933 -0.0865608
26.5205 138.038 -4.99141 0.366298 0.923749 -0.111866
25.5809 138.156 -6.856 0.382486 0.907664 -0.172775
24.4262 138.263 -8.48689 0.377469 0.895776 -0.23474
23.1592 138.324 -10.0512 0.375351 0.87237 -0.31318
21.8674 138.295 -11.601 0.360319 0.873586 -0.327135
20.4753 138.325 -13.0576 0.360526 0.871771 -0.331717
19.0726 138.31 -14.4883 0.342306 0.870853 -0.352764
17.5408 138.327 -15.7907 0.322897 0.85653 -0.402608
15.9096 138.376 -17.0148 0.334461 0.848882 -0.40931
14.3379 138.385 -18.2865 0.33672 0.847686 -0.409938
12.6587 138.363 -19.4565 0.277906 0.852802 -0.44215
10.9121 138.377 -20.4831 0.247503 0.855716 -0.45441
9.11335 138.351 -21.5002 0.24041 0.858954 -0.452099
7.27767 138.349 -22.4165 0.215452 0.862266 -0.458342
5.33691 138.31 -23.3515 0.198545 0.869135 -0.452973
3.38303 138.319 -24.171 0.188045 0.865692 -0.463915
1.42437 138.35 -24.889 0.179496 0.865445 -0.467746
-0.514084 138.374 -25.5209 0.145052 0.875165 -0.461569
-2.46846 138.368 -26.104 0.120653 0.875881 -0.4672
-4.48695 138.366 -26.5276 0.0564254 0.856454 -0.513128
-6.58818 138.359 -26.6194 -0.000152064 0.861273 -0.508143
-8.80401 138.246 -26.7817 -0.0141963 0.877359 -0.479625
-10.8107 138.08 -26.8711 -0.0621091 0.907761 -0.41484
-12.8615 138.041 -26.5791 -0.116902 0.9097 -0.398472
-14.7972 138.031 -25.8901 -0.151193 0.916345 -0.370745
-16.7434 138.072 -24.9946 -0.198777 0.918031 -0.341628
-18.1937 138.244 -23.5785 -0.291889 0.875314 -0.385011
-19.4769 138.369 -21.8638 -0.378624 0.880693 -0.284632
-20.787 138.236 -20.2815 -0.455159 0.862672 -0.220516
-21.9183 137.979 -18.8452 -0.504235 0.832463 -0.229598
-22.3885 138.2 -16.7458 -0.508091 0.846313 -0.159995
-22.9137 138.231 -14.7865 -0.521997 0.839906 -0.148584
-23.3541 138.272 -12.8041 -0.497716 0.858673 -0.122295
-23.7729 138.314 -10.8488 -0.483886 0.866759 -0.120763
-24.1453 138.364 -8.88387 -0.481627 0.870364 -0.102404
-24.3853 138.336 -6.79045 -0.499765 0.866136 -0.0066202
-24.5659 138.297 -4.71444 -0.495749 0.867711 -0.0362013
-24.6485 138.342 -2.6337 -0.498178 0.866667 -0.0265675
-24.618 138.38 -0.541356 -0.518605 0.855009 -0.00276411
-24.572 138.426 0.934271 -0.521709 0.853053 -0.0109824
-11.9978 146.057 0.526411 -0.397008 0.908259 -0.131962
-11.7562 146.257 2.5202 -0.319035 0.946748 0.0434078
-11.1296 146.152 4.56524 -0.274965 0.947445 0.163531
-10.1245 146.009 6.43519 -0.260628 0.932058 0.251677
-8.7817 145.843 8.1475 -0.1615 0.927526 0.337021
-7.21782 145.601 9.45558 -0.142964 0.92628 0.348664
-5.5228 145.467 10.5056 -0.137592 0.927428 0.347772
-3.62362 145.32 11.2735 0.00312811 0.902983 0.429502
-1.57772 145.025 11.6824 0.0680655 0.909005 0.41119
0.558991 144.764 11.6804 0.160385 0.900191 0.404885
2.66627 144.488 11.2922 0.196145 0.884076 0.424189
4.58981 144.38 10.6508 0.189257 0.8721 0.451247
6.36033 144.442 9.6128 0.26954 0.843841 0.463978
7.99353 144.497 8.43096 0.29939 0.873274 0.384393
9.34403 144.55 6.96212 0.414616 0.862538 0.289707
10.4332 144.528 5.07899 0.395627 0.898873 0.18843
11.1645 144.599 3.13858 0.400073 0.902112 0.161667
11.5902 144.707 1.06733 0.434722 0.895031 0.0996815
11.6106 144.866 -0.949594 0.440388 0.897161 0.0338984
11.2971 144.932 -2.9416 0.425829 0.902312 -0.0664105
10.6544 145.019 -4.86244 0.366893 0.923675 -0.11036
9.69743 145.081 -6.70349 0.320799 0.920229 -0.223214
8.40215 145.059 -8.28324 0.287258 0.911331 -0.29488
6.80594 145.071 -9.56321 0.257786 0.905554 -0.336924
5.0571 145.17 -10.5644 0.214865 0.902052 -0.373862
3.07624 145.2 -11.321 0.132897 0.919396 -0.370202
0.899198 145.196 -11.7018 0.0169134 0.903697 -0.427838
-1.17579 145.231 -11.6841 -0.00594128 0.909691 -0.415244
-3.26769 145.348 -11.256 -0.0491456 0.890142 -0.453025
-5.18378 145.481 -10.5507 -0.180515 0.913995 -0.363355
-6.92873 145.507 -9.5556 -0.191346 0.917852 -0.347749
-8.60806 145.664 -8.16034 -0.190693 0.941596 -0.276862
-9.80912 145.62 -6.56895 -0.380231 0.907984 -0.176038
-10.7588 145.55 -4.80853 -0.400387 0.898958 -0.177666
-11.4367 145.645 -2.91645 -0.394272 0.8974 -0.198045
-11.8797 145.882 -0.84586 -0.423863 0.890528 -0.165227
-11.987 146.038 0.354825 -0.408749 0.904398 -0.121888
-7.36678 147.56 0.162636 -0.275547 0.961163 -0.0142367
-7.07277 147.492 -1.99619 -0.321984 0.937228 -0.132779
-6.20962 147.458 -3.87434 -0.320155 0.924568 -0.20658
-4.83363 147.427 -5.54409 -0.218748 0.929331 -0.297479
-3.12641 147.365 -6.60599 -0.146644 0.929536 -0.338289
-1.23201 147.311 -7.22328 -0.00666039 0.92265 -0.384378
0.779953 147.203 -7.26583 0.0981399 0.921913 -0.373731
2.75659 147.091 -6.73848 0.176369 0.932292 -0.315794
4.52777 146.982 -5.76533 0.265682 0.925705 -0.269225
5.91153 146.952 -4.33225 0.308769 0.917196 -0.251818
6.83658 146.902 -2.47797 0.354066 0.933774 -0.0519953
7.23693 146.79 -0.518221 0.389404 0.920739 0.0245598
7.08544 146.678 1.55789 0.391071 0.909245 0.142236
6.3576 146.648 3.45225 0.370366 0.913248 0.169724
5.17496 146.649 5.17855 0.250661 0.920473 0.29983
3.43141 146.641 6.36632 0.231722 0.8946 0.381986
1.5662 146.735 7.11796 0.160749 0.894456 0.417263
-0.507576 146.916 7.30922 0.06331 0.930224 0.361489
-2.55161 147.106 6.86825 -0.0357088 0.927911 0.37094
-4.40384 147.277 5.88295 -0.134162 0.955827 0.261492
-5.84959 147.38 4.47351 -0.176301 0.959145 0.221265
-6.85254 147.514 2.73729 -0.223746 0.963059 0.149849
-7.33509 147.572 0.702088 -0.262226 0.964549 0.0295347
-7.36098 147.563 0.284977 -0.275737 0.961199 -0.00813783
-30.5806 127.933 -27.3975 -0.720117 0.672918 -0.169096
-31.8945 126.404 -27.7503 -0.736701 0.654606 -0.169588
-33.1671 124.827 -28.2655 -0.744687 0.647471 -0.161931
-34.406 123.263 -28.7592 -0.753294 0.639423 -0.153877
-35.5904 121.734 -29.282 -0.751977 0.639811 -0.158661
-36.6927 120.223 -30.0071 -0.769133 0.618983 -0.159045
-37.8132 118.633 -30.7549 -0.77222 0.615346 -0.158194
-38.8883 117.088 -31.5092 -0.776945 0.610801 -0.152561
-39.9611 115.528 -32.2287 -0.780409 0.605841 -0.154656
-40.9084 114.051 -33.1938 -0.791304 0.591994 -0.152773
-41.8968 112.47 -34.139 -0.799254 0.584221 -0.140991
-42.9328 110.826 -35.0412 -0.804446 0.57836 -0.135521
-43.9072 109.248 -35.9424 -0.808994 0.572417 -0.13367
-44.8701 107.647 -36.9542 -0.811933 0.568999 -0.130392
-45.767 106.125 -37.947 -0.819014 0.560077 -0.124609
-46.6691 104.581 -38.9807 -0.818852 0.560859 -0.122144
-47.625 102.975 -39.9651 -0.818304 0.562062 -0.120271
-48.5421 101.42 -40.9167 -0.82757 0.548182 -0.12093
-49.4336 99.8439 -41.9016 -0.829353 0.544985 -0.123148
-50.3623 98.1994 -42.9294 -0.828715 0.545694 -0.124296
-51.2605 96.6101 -43.9283 -0.828296 0.546247 -0.124659
-52.1511 95.0161 -44.9332 -0.830918 0.541303 -0.128707
-53.0325 93.4171 -45.9649 -0.831475 0.540502 -0.128475
-53.8812 91.8668 -46.9691 -0.833963 0.536897 -0.127467
-54.7593 90.2645 -47.9632 -0.834289 0.536311 -0.1278
-55.6744 88.5836 -49.0453 -0.833919 0.53688 -0.127826
-56.5463 86.9926 -50.0453 -0.83187 0.539432 -0.130405
-57.3764 85.4708 -51.0468 -0.829849 0.541444 -0.134866
-58.2225 83.926 -52.0536 -0.828495 0.543067 -0.136651
-59.074 82.3616 -53.0309 -0.829536 0.537788 -0.150511
-59.925 80.7476 -54.0556 -0.83117 0.533993 -0.154938
-60.7312 79.1673 -55.1886 -0.830741 0.534648 -0.154988
-61.5331 77.588 -56.3078 -0.835659 0.528319 -0.150177
-62.3422 75.9689 -57.4612 -0.839328 0.522908 -0.148645
-63.1779 74.2909 -58.6325 -0.839656 0.523576 -0.144379
-63.9539 72.7443 -59.6779 -0.838691 0.525525 -0.142903
-64.7296 71.1893 -60.7646 -0.841253 0.520829 -0.145017
-65.5488 69.5631 -61.8591 -0.844413 0.518749 -0.133663
-66.3644 67.9548 -62.9061 -0.846911 0.515133 -0.131701
-66.7642 67.0852 -63.7736 -0.847316 0.517052 -0.121281
-65.9003 68.7132 -62.9353 -0.851466 0.510918 -0.118175
-65.0621 70.3199 -62.0245 -0.849408 0.513776 -0.120582
-64.1851 71.9862 -61.1503 -0.849927 0.511769 -0.125369
-63.3186 73.6379 -60.2614 -0.849352 0.512433 -0.126541
-62.4463 75.2911 -59.4081 -0.849887 0.512286 -0.123507
-61.5705 76.9632 -58.5013 -0.849366 0.512777 -0.125048
-60.6404 78.7022 -57.5854 -0.845742 0.520614 -0.116965
-59.7526 80.3445 -56.701 -0.846614 0.519369 -0.11618
-58.8233 82.0672 -55.785 -0.848492 0.516988 -0.113068
-57.9579 83.6779 -54.8977 -0.845683 0.523607 -0.103224
-57.0432 85.3157 -53.9757 -0.838229 0.533447 -0.113162
-56.1246 86.9491 -53.0785 -0.837957 0.533092 -0.116787
-55.2485 88.5258 -52.1633 -0.837061 0.533972 -0.119171
-54.345 90.1417 -51.2806 -0.836957 0.53376 -0.120847
-53.4781 91.7087 -50.3631 -0.83694 0.533782 -0.120866
-52.5895 93.2885 -49.5178 -0.835261 0.536828 -0.118972
-51.7025 94.8589 -48.6424 -0.834415 0.538044 -0.119417
-50.8161 96.425 -47.7537 -0.832599 0.540639 -0.120364
-49.8801 98.0612 -46.8113 -0.829485 0.545678 -0.119121
-48.9044 99.7586 -45.8448 -0.829582 0.544806 -0.122396
-48.0179 101.323 -44.8901 -0.828606 0.546068 -0.123372
-47.0861 102.906 -43.9703 -0.817162 0.563791 -0.119938
-46.1547 104.458 -43.0177 -0.816773 0.564104 -0.121113
-45.2051 106.036 -42.0861 -0.816345 0.56452 -0.122055
-44.2268 107.65 -41.1608 -0.816104 0.56489 -0.121958
-43.2932 109.203 -40.2023 -0.815205 0.566556 -0.120234
-42.3426 110.725 -39.2762 -0.805739 0.58085 -0.115745
-41.3477 112.305 -38.2219 -0.798033 0.589276 -0.126073
-40.3755 113.814 -37.2799 -0.792678 0.595299 -0.131456
-39.4207 115.304 -36.3019 -0.792834 0.595688 -0.128723
-38.4463 116.794 -35.3017 -0.789367 0.601494 -0.122905
-37.4438 118.304 -34.2785 -0.776578 0.615445 -0.134736
-36.4405 119.785 -33.2823 -0.773812 0.61843 -0.136963
-35.4106 121.287 -32.2627 -0.769018 0.624998 -0.134122
-34.3465 122.812 -31.161 -0.757677 0.639857 -0.128348
-33.3421 124.206 -30.0988 -0.74932 0.647765 -0.137552
-32.3071 125.613 -29.0568 -0.743494 0.65154 -0.150603
-31.243 127.073 -27.9618 -0.728079 0.664131 -0.169778
-30.6335 127.863 -27.4543 -0.721024 0.673047 -0.164721
-66.9519 66.7203 -63.9932 -0.851587 0.509114 -0.124753
-66.999 66.6274 -64.0526 -0.853182 0.507751 -0.119443
-67.1637 66.3586 -64.0526 -0.843399 0.520644 -0.132697
-67.1531 66.3579 -64.1228 -0.843394 0.52065 -0.132706
-13.9787 141.391 -17.9174 -0.246221 0.914157 -0.322013
-11.9305 141.874 -17.9949 -0.193309 0.945179 -0.26319
-9.85494 142.16 -18.0178 -0.0773737 0.945421 -0.316533
-7.82146 142.261 -18.0083 -0.0292605 0.952583 -0.30287
-5.68094 142.343 -17.9955 -0.0350492 0.947273 -0.318506
-3.63843 142.456 -18.0169 -0.050284 0.923253 -0.380888
-1.54315 142.394 -17.98 0.109241 0.882372 -0.457695
0.450295 142.184 -17.8896 0.119363 0.882386 -0.455135
2.08743 141.997 -17.8228 0.120368 0.882038 -0.455544
8.642 142.305 -14.5608 0.297427 0.863747 -0.406791
6.57289 142.806 -14.7062 0.197331 0.865398 -0.460594
4.48563 143.208 -14.8259 0.176666 0.872735 -0.455106
2.37569 143.493 -14.9178 0.114304 0.870337 -0.479007
0.386854 143.71 -14.9969 0.0974612 0.879112 -0.466544
-1.64139 143.81 -15.025 -0.0470765 0.924482 -0.378308
-3.72737 143.692 -14.9732 -0.0676802 0.918011 -0.390737
-5.78256 143.553 -14.9395 -0.0680262 0.917229 -0.39251
-7.8043 143.413 -14.9225 -0.0653536 0.916013 -0.395788
-9.87309 143.231 -14.9257 -0.184162 0.894012 -0.408445
-11.8245 142.708 -14.8176 -0.277121 0.911561 -0.303744
-13.9553 142.169 -14.7325 -0.235895 0.949156 -0.20846
-15.9264 141.547 -14.6396 -0.370114 0.911716 -0.178296
-16.1755 141.448 -14.6247 -0.372487 0.910751 -0.178287
-16.9587 141.61 -11.32 -0.403239 0.907489 -0.117736
-15.0301 142.466 -11.4416 -0.416658 0.899044 -0.134594
-13.086 143.429 -11.6052 -0.465468 0.877208 -0.11767
-11.0872 144.301 -11.7784 -0.324502 0.899248 -0.293345
-9.07334 144.696 -11.8536 -0.161281 0.939896 -0.30097
-7.77068 144.783 -11.8614 -0.00681063 0.963599 -0.267264
-11.3148 144.63 -8.35316 -0.402012 0.904018 -0.145385
-13.2657 143.794 -8.22411 -0.394807 0.903333 -0.167679
-15.1278 142.928 -8.11512 -0.442085 0.882343 -0.161343
-16.9509 142.035 -8.01773 -0.441619 0.886668 -0.137084
-17.5669 141.742 -7.9891 -0.424559 0.894766 -0.138362
-18.1792 142.015 -4.65443 -0.447983 0.881268 -0.150589
-16.3623 142.925 -4.70834 -0.445688 0.881932 -0.153485
-14.4774 143.864 -4.77555 -0.443209 0.882329 -0.158304
-13.1068 144.498 -4.83311 -0.399759 0.900024 -0.173638
-14.0752 144.684 -1.33465 -0.44944 0.878957 -0.159495
-15.8623 143.773 -1.31122 -0.457001 0.875756 -0.15557
-17.6592 142.761 -1.30156 -0.520853 0.850185 -0.076796
-18.3874 142.3 -1.28872 -0.540536 0.839602 -0.0537546
-18.3706 142.447 2.10631 -0.556791 0.830396 -0.0206475
-16.6894 143.681 2.14226 -0.611426 0.788836 -0.0624097
-14.8543 144.897 2.18714 -0.497849 0.863911 -0.0761789
-14.1361 145.271 2.20115 -0.43619 0.898624 -0.0470403
-13.0849 145.157 5.76085 -0.382013 0.876757 0.292169
-14.9248 144.358 5.6779 -0.398263 0.886444 0.235803
-16.8254 143.336 5.60209 -0.538737 0.837382 0.0924824
-18.032 142.514 5.53676 -0.563946 0.823767 0.0580763
-17.2887 142.576 8.93615 -0.508829 0.834764 0.210388
-15.4964 143.481 9.05261 -0.312985 0.912289 0.26414
-13.457 144.164 9.12992 -0.299585 0.913154 0.276403
-11.4965 144.766 9.20679 -0.288199 0.914856 0.282807
-10.9684 144.923 9.23434 -0.287278 0.914257 0.285668
-6.37155 144.526 12.5988 -0.110574 0.919634 0.376891
-8.40295 144.244 12.5366 -0.153722 0.928766 0.337288
-10.4221 143.932 12.4834 -0.153565 0.926601 0.343263
-12.3849 143.461 12.4214 -0.316562 0.893323 0.319002
-14.4225 142.685 12.2786 -0.356036 0.874348 0.329779
-16.2106 141.971 12.1654 -0.392278 0.872162 0.29232
-14.6196 141.417 15.345 -0.336884 0.881043 0.332072
-12.5964 142.149 15.498 -0.300128 0.886157 0.353057
-10.52 142.647 15.5742 -0.187391 0.892845 0.409527
-8.49483 142.957 15.6208 -0.0806979 0.890489 0.447792
-6.42186 143.097 15.6181 -0.0624229 0.896943 0.437718
-4.33966 143.233 15.6447 -0.0502821 0.865501 0.498377
-2.22599 143.237 15.6349 0.101898 0.870008 0.482392
-0.152387 143.005 15.5169 0.138698 0.884286 0.445872
1.95864 142.697 15.3882 0.195458 0.875004 0.442904
4.01917 142.241 15.2046 0.246112 0.864665 0.43793
4.41625 142.147 15.1682 0.244662 0.864763 0.438549
6.38335 143.161 12.071 0.246112 0.87017 0.426888
8.41784 142.652 11.9217 0.257253 0.870775 0.419012
10.1383 142.13 11.7855 0.311834 0.852221 0.420094
10.6954 143.313 8.71182 0.360787 0.867537 0.342364
12.5667 142.583 8.5455 0.400467 0.862345 0.309819
14.2357 141.919 8.40905 0.376864 0.880643 0.287127
12.7381 143.401 5.3144 0.415713 0.879674 0.230988
14.6938 142.601 5.20175 0.359827 0.903539 0.232683
16.6487 141.818 5.10343 0.381364 0.899776 0.212047
17.0432 141.654 5.09052 0.382518 0.899413 0.211512
19.5241 141.36 1.84521 0.369006 0.924084 0.0995157
17.6265 142.095 1.88072 0.366577 0.926532 0.0846112
15.7146 142.843 1.91514 0.361236 0.926942 0.101429
13.7799 143.589 1.95568 0.363731 0.926816 0.0933391
13.7068 143.617 1.9574 0.375183 0.922367 0.0920729
13.8474 143.823 -1.4111 0.387552 0.920483 -0.0501355
15.8242 143.024 -1.39612 0.368097 0.928903 -0.0405393
17.7814 142.233 -1.38239 0.397414 0.917377 -0.0219221
19.6846 141.412 -1.37256 0.410587 0.908389 -0.0790364
20.2972 141.135 -1.36823 0.410508 0.908158 -0.0820555
18.9849 141.332 -4.58236 0.401949 0.907574 -0.121435
17.0068 142.196 -4.64988 0.39876 0.908278 -0.126579
15.1082 143.018 -4.71589 0.404252 0.904947 -0.132856
13.1178 143.911 -4.80581 0.415691 0.903162 -0.107231
13.078 143.929 -4.80771 0.418758 0.901935 -0.105617
11.4286 144.004 -8.23697 0.33918 0.901464 -0.268924
13.2858 143.232 -8.09418 0.40994 0.886214 -0.21581
15.1725 142.431 -7.96539 0.384509 0.898476 -0.211883
16.3845 141.933 -7.88894 0.381372 0.898854 -0.215909
12.9236 142.288 -11.2445 0.340929 0.859311 -0.38125
10.9025 142.978 -11.3939 0.309634 0.870294 -0.383034
8.88785 143.615 -11.5444 0.301916 0.870732 -0.388165
7.59925 144.009 -11.6532 0.303737 0.874473 -0.378207
-4.22231 141.632 18.4934 0.00331589 0.881365 0.472425
-6.24953 141.627 18.5389 0.00620643 0.884713 0.466094
-8.31641 141.545 18.5622 -0.0906393 0.891484 0.443892
-10.383 141.239 18.5098 -0.159252 0.888436 0.430488
-12.4397 140.946 18.4896 -0.117422 0.923671 0.364752
-12.8325 140.873 18.4792 -0.183084 0.91996 0.346631
-12.9353 140.855 18.4768 -0.196359 0.922309 0.332849
