-20.3198 138.703 -5.00966 -0.309104 0.950997 0.00760199
-20.1055 138.688 -7.16207 -0.222986 0.973124 -0.0575057
-19.8006 138.627 -9.29461 -0.20286 0.977546 -0.0569755
-19.4604 138.639 -11.4306 -0.229417 0.972737 0.0339223
-18.9578 138.702 -13.4698 -0.138219 0.988461 -0.0619786
-18.3032 138.573 -15.3936 -0.106858 0.987943 -0.111833
-17.6227 138.428 -17.3023 -0.0923683 0.988647 -0.118258
-16.0908 138.468 -17.9163 -0.067001 0.989357 -0.129165
-14.3278 138.629 -16.9772 0.0306382 0.990115 -0.136863
-12.4733 138.553 -16.073 0.106697 0.988851 -0.102167
-10.6008 138.461 -15.1484 0.0809383 0.985849 -0.146803
-8.88063 138.356 -14.0958 0.184408 0.975719 -0.117956
-8.38306 138.546 -12.1847 0.226696 0.959986 -0.164376
-8.40193 138.99 -10.0865 0.20707 0.947687 -0.242919
-8.77101 139.568 -8.12983 0.21103 0.953194 -0.216535
-9.27143 140.044 -6.20612 0.348703 0.931051 -0.0837973
-9.93786 140.173 -4.30458 0.252295 0.960755 0.115314
-10.587 140.049 -2.4077 0.245568 0.951232 0.186693
-11.274 139.682 -0.517889 0.079557 0.969459 0.230883
-11.9497 139.43 1.37467 0.0613431 0.99294 0.101466
-12.7425 139.263 3.30117 0.0987767 0.97386 0.201259
-13.7222 138.984 5.07655 0.151547 0.946305 0.285553
-15.2207 138.572 6.47342 -0.0615114 0.964166 0.257984
-17.1037 138.319 7.21578 -0.0679143 0.980796 0.182831
-18.1097 138.474 5.48468 -0.186591 0.969021 0.161807
-19.0351 138.614 3.62344 -0.207553 0.963241 0.170523
-19.6363 138.672 1.54979 -0.261868 0.964482 0.0345402
-19.9995 138.688 -0.54753 -0.292793 0.95309 0.0767531
-20.2245 138.702 -2.66303 -0.310474 0.950489 0.013286
-20.3183 138.701 -4.77377 -0.31044 0.9505 0.0132731
-20.3196 138.702 -4.85937 -0.309317 0.950892 0.0109873
-23.9188 137.624 -5.11264 -0.284438 0.958626 0.0114664
-23.9096 137.586 -3.10053 -0.275734 0.960992 0.0215576
-23.6995 137.6 -0.935886 -0.275171 0.961087 0.0243546
-23.4419 137.636 1.06794 -0.280134 0.959878 0.01259
-23.0503 137.683 3.07247 -0.290753 0.954394 0.0677809
-22.3893 137.627 5.11834 -0.255682 0.954973 0.150509
-21.4264 137.579 6.98595 -0.22817 0.962402 0.147377
-20.5152 137.491 8.96504 -0.174768 0.977391 0.119002
-19.5349 137.431 10.8096 -0.129635 0.982696 0.132201
-17.7945 137.389 11.7304 0.0321553 0.989981 0.137491
-15.8528 137.451 10.8109 0.000796879 0.971123 0.23858
-13.9299 137.682 9.97821 0.0128923 0.959843 0.280167
-12.1448 137.757 8.94814 0.237797 0.937761 0.250949
-10.907 137.791 7.37075 0.278168 0.9305 0.238307
-9.80029 137.868 5.50666 0.354062 0.903369 0.242
-8.99934 138.131 3.64248 0.404747 0.86746 0.289296
-8.27257 138.343 1.68861 0.540237 0.803952 0.248605
-7.63817 138.499 -0.28997 0.586671 0.770903 0.247428
-7.04258 138.55 -2.23775 0.609947 0.762231 0.215471
-6.35301 138.468 -4.19744 0.594197 0.793743 0.129006
-5.70897 138.203 -6.14778 0.548386 0.834744 0.049748
-5.13645 137.951 -8.23889 0.437473 0.899059 -0.0168316
-4.78195 137.709 -10.2054 0.317725 0.947041 -0.0458343
-4.67305 137.627 -12.2048 0.289538 0.956798 -0.0265649
-4.95795 137.622 -14.2722 0.274465 0.960192 -0.051952
-5.63658 137.622 -16.3193 0.228705 0.963519 -0.138711
-7.37912 137.562 -17.6969 0.0999416 0.970993 -0.217219
-9.20087 137.612 -18.5815 0.133601 0.971005 -0.198243
-11.0214 137.663 -19.4995 0.138658 0.965278 -0.221388
-12.9607 137.702 -20.3741 0.139337 0.945288 -0.29495
-14.6766 137.613 -21.4434 0.117 0.958377 -0.260433
-16.5858 137.521 -22.4732 0.0241586 0.968453 -0.247719
-18.5326 137.598 -21.8493 -0.107105 0.967045 -0.23098
-20.023 137.669 -20.2789 -0.220745 0.961245 -0.162791
-21.0878 137.581 -18.7409 -0.31545 0.936726 -0.151773
-21.7134 137.704 -16.8351 -0.29544 0.942548 -0.155941
-22.3618 137.728 -14.8235 -0.308993 0.94696 -0.0882595
-22.9311 137.664 -12.7996 -0.309793 0.949657 -0.0466854
-23.2518 137.653 -10.8009 -0.297905 0.95367 -0.0420162
-23.5742 137.638 -8.79069 -0.287978 0.956669 -0.0430606
-23.9048 137.627 -6.78435 -0.292717 0.956072 -0.0155734
-23.9177 137.625 -5.14715 -0.284437 0.958626 0.0114674
-18.3433 139.281 -5.29998 -0.257501 0.96508 -0.048108
-16.2361 139.821 -5.32663 -0.246057 0.96561 -0.083982
-14.1859 140.199 -5.35371 -0.10238 0.993337 -0.0529182
-12.0183 140.339 -5.3686 -0.0547216 0.993333 -0.101467
-11.7088 140.356 -5.37384 -0.0566637 0.992411 -0.109129
-10.6254 139.722 -9.07674 0.177805 0.954818 -0.238134
-12.6785 139.75 -9.01981 -0.121544 0.975919 -0.181133
-14.7111 139.498 -8.95283 -0.138318 0.981265 -0.134119
-16.6989 139.21 -8.91017 -0.169671 0.98397 -0.0549107
-17.9548 138.992 -8.88738 -0.17312 0.984067 -0.0405248
-17.2362 138.928 -12.466 -0.105975 0.994083 -0.0238202
-15.1195 139.105 -12.5069 -0.0385443 0.992479 -0.116185
-12.9286 139.076 -12.5403 0.00433421 0.970632 -0.240529
-10.9161 139.016 -12.5754 0.074663 0.971882 -0.223318
-10.3339 138.935 -12.5786 0.172385 0.971946 -0.160014
-12.8887 140.043 -1.6282 -0.145951 0.969967 0.194581
-15.0683 139.819 -1.65608 -0.013663 0.993295 0.114793
-17.2162 139.61 -1.65974 -0.240901 0.968756 0.058983
-18.2182 139.322 -1.67107 -0.286938 0.955904 0.0625608
-17.5722 139.156 1.94482 -0.164131 0.981422 0.0993568
-15.5573 139.354 1.97037 -0.084184 0.994228 0.0665124
-14.3605 139.455 1.98719 -0.0640919 0.995974 0.0626673
-14.2798 139.458 1.98815 -0.0433397 0.997525 0.0553618
