-89.7366 3.29093 -96.4897 -0.623357 0.472788 -0.622814
-88.3344 3.49184 -97.7395 -0.623383 0.47229 -0.623166
-86.8866 3.66561 -99.0787 -0.635183 0.46527 -0.616495
-85.2806 4.03499 -100.419 -0.620345 0.46711 -0.630064
-83.6589 4.37604 -101.765 -0.622662 0.465065 -0.629291
-82.0911 4.79862 -103 -0.620044 0.465934 -0.631229
-80.4973 5.16025 -104.297 -0.619847 0.465916 -0.631437
-78.9661 5.40697 -105.576 -0.53597 0.490966 -0.686796
-77.2839 5.39692 -106.813 -0.476569 0.492294 -0.728374
-75.6123 5.18855 -107.945 -0.437153 0.484539 -0.757706
-73.9185 4.87987 -109.109 -0.425142 0.485917 -0.763635
-72.2946 4.20879 -110.155 -0.270373 0.429486 -0.861649
-71.0854 3.19015 -111.058 -0.245587 0.445437 -0.860407
-73.0401 3.27028 -110.389 -0.270586 0.428851 -0.861899
-74.9467 3.29201 -109.538 -0.432482 0.485143 -0.759997
-76.7084 3.27174 -108.538 -0.43725 0.484568 -0.757632
-78.4803 3.29229 -107.449 -0.501513 0.501131 -0.705105
-80.0764 3.3418 -106.051 -0.618759 0.464979 -0.633191
-81.5355 3.33318 -104.626 -0.619839 0.465921 -0.63144
-83.0705 3.35081 -103.104 -0.622082 0.465197 -0.629766
-84.5434 3.39254 -101.62 -0.620612 0.466086 -0.630559
-86.1001 3.31369 -100.145 -0.625454 0.46492 -0.626617
-87.5503 3.33379 -98.6492 -0.630812 0.470053 -0.617354
-88.972 3.29458 -97.2517 -0.62291 0.472922 -0.623159
-89.574 3.3278 -96.6245 -0.623333 0.472951 -0.622714
-90.4005 1.18224 -97.4262 -0.62532 0.473932 -0.619966
-88.9597 1.15614 -98.8869 -0.622898 0.47292 -0.623173
-87.4907 1.17674 -100.343 -0.627042 0.469922 -0.621281
-86.0185 1.19427 -101.799 -0.619583 0.467165 -0.630772
-84.5836 1.20163 -103.203 -0.619571 0.467186 -0.630768
-83.0734 1.1663 -104.714 -0.620763 0.465866 -0.630573
-81.5645 1.15352 -106.206 -0.619813 0.465895 -0.631485
-80.1029 1.14845 -107.644 -0.62114 0.460421 -0.63419
-78.5072 1.13858 -108.864 -0.437921 0.486863 -0.755771
-76.7301 1.15316 -109.88 -0.436875 0.48452 -0.757879
-74.8299 1.14305 -110.882 -0.323341 0.457661 -0.827834
-72.8914 1.11723 -111.669 -0.33331 0.525878 -0.782532
-70.9332 1.09963 -112.388 -0.180181 0.538652 -0.82284
-68.9502 1.108 -112.704 -0.127698 0.527809 -0.839709
-66.962 1.11181 -113.009 -0.139762 0.520833 -0.84214
-65.1376 1.31282 -113.201 -0.175745 0.39712 -0.900783
-66.556 2.64251 -112.316 -0.205275 0.372349 -0.905107
-67.9964 3.95569 -111.45 -0.209448 0.36738 -0.906181
-69.4322 5.27679 -110.572 -0.22637 0.383603 -0.895324
-70.9454 6.22124 -109.608 -0.313766 0.415169 -0.853908
-72.6414 6.90379 -108.554 -0.422398 0.454917 -0.783984
-74.2691 7.21096 -107.427 -0.437147 0.484534 -0.757713
-75.9773 7.5254 -106.221 -0.457341 0.501105 -0.734665
-77.6628 7.54167 -105.042 -0.505128 0.497076 -0.705522
-79.4172 7.42297 -103.683 -0.612192 0.464447 -0.63993
-81.0679 7.03584 -102.353 -0.619862 0.46591 -0.631426
-82.6079 6.65209 -101.124 -0.621524 0.464873 -0.630557
-84.1439 6.28317 -99.8771 -0.622657 0.465014 -0.629333
-85.8083 5.9279 -98.4817 -0.631943 0.463889 -0.62085
-87.3146 5.70263 -97.0985 -0.633816 0.46715 -0.616481
-88.7877 5.53632 -95.7347 -0.623001 0.472943 -0.623053
-90.2947 5.37438 -94.3319 -0.627134 0.464894 -0.624961
-91.7927 5.31254 -92.8655 -0.642569 0.461793 -0.611421
-93.2526 5.10465 -91.3563 -0.679101 0.456116 -0.575135
-94.7475 4.74283 -89.8129 -0.694771 0.452763 -0.558837
-96.1302 4.37257 -88.3666 -0.710679 0.460208 -0.532113
-97.4365 3.71399 -86.9674 -0.758415 0.446223 -0.475063
-98.6794 3.07005 -85.532 -0.775897 0.450422 -0.441706
-99.9947 2.3304 -83.9594 -0.774282 0.460686 -0.433834
-101.334 1.60171 -82.3341 -0.770701 0.478007 -0.421304
-101.501 1.1655 -82.5217 -0.768313 0.489104 -0.412883
-100.524 1.13783 -84.3524 -0.765241 0.491801 -0.415377
-99.4989 1.1275 -86.2377 -0.761664 0.487415 -0.426961
-98.4276 1.14514 -87.9514 -0.741013 0.47796 -0.471642
-97.2484 1.19113 -89.5795 -0.695604 0.454952 -0.556015
-95.9151 1.1681 -91.2575 -0.694797 0.452756 -0.55881
-94.5932 1.17309 -92.8896 -0.690716 0.452918 -0.563711
-93.1817 1.1677 -94.4656 -0.653548 0.460005 -0.601055
-91.7851 1.16507 -95.9905 -0.650846 0.463931 -0.600972
-90.6066 1.18508 -97.2152 -0.626252 0.475228 -0.618034
-90.5455 1.18412 -97.2779 -0.626248 0.475237 -0.618031
