-9.91236 138.195 -1.30062 -0.315501 0.948874 -0.00989759
-9.73973 138.164 -3.37267 -0.291613 0.954506 -0.0622923
-9.31369 138.122 -5.3707 -0.256144 0.961428 -0.100229
-8.50124 138.014 -7.32657 -0.205983 0.963247 -0.172349
-7.00065 138.013 -8.68218 -0.150803 0.967756 -0.201761
-5.35083 137.988 -9.89864 -0.0911685 0.974658 -0.203639
-3.3419 138.056 -10.072 -0.0251984 0.967911 -0.249998
-1.27382 138.16 -9.62003 0.0267653 0.955521 -0.293621
0.652018 138.286 -8.71109 0.118737 0.947 -0.298441
-0.757123 138.401 -8.77526 0.0526582 0.953157 -0.297857
-2.72933 138.55 -8.36578 -0.0131732 0.962813 -0.269831
-4.64231 138.649 -7.47078 -0.14439 0.955471 -0.256973
-6.23013 138.683 -6.1241 -0.184751 0.95849 -0.217169
-7.51239 138.705 -4.49285 -0.262887 0.955928 -0.130738
-8.3544 138.671 -2.64963 -0.315862 0.945728 -0.0763516
-8.74859 138.601 -0.58639 -0.332937 0.942921 0.00734131
-8.62789 138.554 1.54417 -0.294778 0.951286 0.0886214
-7.95865 138.484 3.57726 -0.258855 0.946636 0.191926
-6.79865 138.367 5.39541 -0.259644 0.936517 0.235629
-5.31116 138.207 6.89248 -0.0950124 0.940751 0.325443
-5.31303 138.015 7.46594 -0.0948724 0.946504 0.308205
-7.04688 137.987 6.57807 -0.2079 0.95281 0.221004
-8.33348 138.06 5.01804 -0.227899 0.946529 0.228351
-9.3986 138.133 3.29841 -0.264568 0.956938 0.118816
-9.70983 138.237 1.17354 -0.308296 0.950697 0.0335836
-9.90862 138.199 -1.00207 -0.309496 0.950899 0.0017863
-9.91235 138.195 -1.29521 -0.315501 0.948874 -0.00989759
-12.4031 137.433 -1.21567 -0.2706 0.962661 0.00765984
-12.3238 137.429 -3.30935 -0.264337 0.963144 -0.0497032
-11.9197 137.415 -5.28158 -0.256128 0.96476 -0.0602889
-11.4095 137.395 -7.22929 -0.240625 0.964853 -0.105386
-10.3366 137.338 -9.09059 -0.175585 0.974521 -0.139569
-8.80315 137.374 -10.4341 -0.174318 0.967657 -0.182353
-7.23915 137.362 -11.7001 -0.118471 0.97435 -0.191241
-5.37167 137.375 -12.6099 -0.0560064 0.973954 -0.219717
-3.3931 137.409 -12.643 0.0328154 0.968651 -0.246248
-1.41373 137.419 -12.2803 0.0466102 0.965789 -0.255097
0.523684 137.445 -11.5893 0.10458 0.959205 -0.262655
2.47391 137.448 -10.7712 0.121955 0.958338 -0.258294
4.1546 137.49 -9.63804 0.182973 0.95252 -0.243366
5.56075 137.503 -8.2027 0.229944 0.948281 -0.218832
7.06437 137.474 -6.61179 0.230713 0.955031 -0.186193
8.09801 137.479 -4.80764 0.2893 0.950799 -0.110788
8.73196 137.484 -2.78904 0.295316 0.952018 -0.0802962
9.02647 137.477 -0.78171 0.307207 0.951017 0.0344703
8.50123 137.52 1.16432 0.320715 0.944089 0.0762748
7.98439 137.519 3.10296 0.31234 0.941256 0.127185
6.64321 137.561 4.78883 0.274395 0.930802 0.241455
5.27596 137.536 6.36372 0.250985 0.936617 0.244448
3.78492 137.538 7.74084 0.217757 0.938316 0.26854
2.01207 137.52 8.76178 0.125272 0.941484 0.312913
0.0741248 137.481 9.50817 0.0825203 0.950393 0.299905
-1.85995 137.425 10.1349 0.0145205 0.964152 0.264954
-4.0455 137.38 10.1706 -0.0313637 0.973902 0.224665
-6.13155 137.358 9.91242 -0.031966 0.975643 0.21702
-8.00083 137.345 9.29779 -0.142245 0.97891 0.146565
-9.39478 137.349 7.69561 -0.162296 0.97707 0.13782
-10.7656 137.368 6.06661 -0.17125 0.971669 0.16289
-11.8037 137.416 4.24322 -0.250548 0.965193 0.0750167
-12.0768 137.438 2.25828 -0.29338 0.955342 0.0353436
-12.3077 137.433 0.242382 -0.281565 0.958993 0.0324626
-12.3925 137.435 -1.02158 -0.27133 0.962438 0.00943851
-6.27623 139.36 -0.592542 -0.262007 0.964521 0.0324353
-6.12445 139.275 1.53698 -0.265518 0.960695 0.0810271
-5.25397 139.191 3.41606 -0.178779 0.960758 0.211717
-3.87038 139.001 4.91242 -0.102658 0.950082 0.294324
-2.02726 138.764 5.9391 -0.00870341 0.935682 0.352738
0.0970517 138.587 6.25991 0.0659006 0.936523 0.343961
2.20629 138.448 5.8452 0.17411 0.933971 0.312063
3.98504 138.343 4.79765 0.271928 0.923709 0.269847
5.33847 138.337 3.2411 0.305114 0.929268 0.208248
6.07447 138.373 1.38766 0.356889 0.929404 0.0940111
6.24686 138.421 -0.592947 0.355181 0.934758 0.00785077
5.68502 138.535 -2.54461 0.332454 0.937568 -0.10218
4.57844 138.652 -4.27148 0.301514 0.934258 -0.190221
2.95023 138.813 -5.56022 0.229386 0.939202 -0.2553
1.02861 139.021 -6.17188 0.138082 0.948689 -0.283882
-0.996937 139.189 -6.22218 0.0311595 0.964029 -0.263963
-2.9343 139.318 -5.61074 -0.071126 0.967736 -0.24172
-4.48852 139.401 -4.37094 -0.167267 0.965637 -0.198914
-5.67477 139.424 -2.6699 -0.210187 0.971094 -0.113128
-6.25534 139.374 -0.81959 -0.248704 0.967974 0.0313486
-6.27337 139.363 -0.634983 -0.262007 0.964521 0.0324354
