-53.5557 12.3414 -134.45 0.279028 0.267712 -0.921886
-51.6785 12.4114 -133.536 0.472984 0.266141 -0.839914
-49.8747 12.3655 -132.529 0.486001 0.264552 -0.832905
-48.0874 12.3413 -131.297 0.597524 0.190002 -0.779015
-46.487 12.3731 -130.057 0.600446 0.191013 -0.776517
-45.3299 11.3712 -129.402 0.610982 0.183575 -0.770066
-45.0363 9.33927 -129.549 0.71471 0.129914 -0.68725
-45.1322 7.67455 -130.016 0.727778 0.185068 -0.660361
-46.6103 7.60492 -131.419 0.611004 0.248358 -0.75166
-48.2222 7.47563 -132.762 0.605876 0.254849 -0.753636
-49.8089 7.46297 -134.011 0.5519 0.244917 -0.797133
-51.3377 8.18726 -134.759 0.486967 0.279475 -0.8275
-52.2305 10.0804 -134.606 0.46876 0.291503 -0.83384
-53.2715 11.8369 -134.498 0.301383 0.228294 -0.92577
-53.5521 12.2796 -134.466 0.259867 0.255653 -0.931188
-57.3895 9.5564 -136.46 0.195359 0.361181 -0.911644
-58.789 11.1283 -136.077 0.1529 0.312564 -0.937483
-60.1535 12.6041 -135.796 0.0661789 0.325196 -0.942738
-61.7193 14.0173 -135.204 -0.0610524 0.395454 -0.916422
-63.2551 15.2428 -134.521 -0.113583 0.392331 -0.912784
-64.9332 16.2744 -133.722 -0.187359 0.429884 -0.883231
-66.6358 17.1904 -132.915 -0.187277 0.429859 -0.88326
-65.6376 17.5644 -132.944 -0.187275 0.429854 -0.883263
-63.5844 17.5824 -133.37 -0.186 0.428461 -0.884209
-61.3751 17.5428 -133.687 -0.0549033 0.404944 -0.912691
-59.3414 17.5606 -133.75 -0.0271395 0.396861 -0.917478
-57.1979 17.5226 -133.769 0.0280054 0.354528 -0.934626
-55.1409 17.4401 -133.619 0.204026 0.236638 -0.949484
-53.2519 17.4178 -132.979 0.441815 0.151451 -0.88423
-51.3983 17.3565 -132.043 0.454499 0.142821 -0.879223
-49.4897 17.3892 -131.103 0.405218 0.105015 -0.908169
-47.6019 17.3387 -130.178 0.640574 -0.0189776 -0.766487
-46.1018 17.3622 -128.705 0.691872 0.0476221 -0.720448
-44.4167 17.3807 -127.226 0.604852 0.172316 -0.77744
-42.8048 17.3856 -125.797 0.726006 0.111049 -0.678663
-42.3209 15.6924 -125.521 0.763771 0.111119 -0.635851
-42.0972 13.6778 -125.604 0.775535 0.106209 -0.622305
-41.8629 11.6496 -125.67 0.768275 0.105144 -0.631321
-41.6287 9.51158 -125.76 0.762525 0.114281 -0.636715
-41.3481 7.36446 -125.824 0.773091 0.138537 -0.618938
-41.0708 5.36409 -125.96 0.799529 0.158714 -0.579278
-40.7655 3.2234 -126.128 0.769945 0.154868 -0.618994
-41.7572 2.6538 -127.474 0.763353 0.151039 -0.628077
-43.1308 2.63578 -129.148 0.763356 0.151033 -0.628073
-44.4927 2.62522 -130.748 0.730853 0.182223 -0.657759
-45.8876 2.61127 -132.269 0.709282 0.201325 -0.675565
-47.3352 2.54654 -133.759 0.649548 0.323204 -0.688082
-48.9399 2.51794 -135.102 0.55408 0.290023 -0.780305
-50.5819 2.53083 -136.242 0.53852 0.290659 -0.790894
-52.337 2.51982 -137.432 0.525897 0.313369 -0.790715
-53.7369 3.39178 -137.934 0.421043 0.358895 -0.833017
-54.6713 5.15294 -137.549 0.294933 0.385108 -0.874475
-55.7018 6.91057 -137.107 0.263475 0.369327 -0.891167
-56.7941 8.71675 -136.671 0.237442 0.369586 -0.89832
-57.207 9.32122 -136.521 0.20632 0.397645 -0.894042
-57.3584 9.51824 -136.468 0.207486 0.374134 -0.90351
