-88.2305 3.70647 100.441 -0.606722 0.676548 0.417339
-87.0657 3.74585 102.061 -0.591075 0.681966 0.430576
-85.7984 3.64689 103.77 -0.524547 0.708025 0.472811
-84.4807 3.60139 105.308 -0.526753 0.705421 0.474244
-82.9083 3.64663 106.806 -0.480915 0.694351 0.535348
-81.3758 3.66733 108.149 -0.475441 0.697772 0.535789
-79.9244 3.59866 109.527 -0.471008 0.70267 0.533298
-78.3121 3.56273 110.938 -0.425974 0.707954 0.563336
-76.6124 3.56159 112.155 -0.393938 0.712485 0.580671
-74.8329 3.568 113.336 -0.389638 0.710047 0.586527
-73.1462 3.57945 114.441 -0.389637 0.709194 0.58756
-71.4395 3.56612 115.493 -0.338747 0.716768 0.609487
-69.6393 3.58006 116.46 -0.337435 0.713723 0.613759
-67.8063 3.66993 117.337 -0.328801 0.687943 0.647011
-65.9933 3.64799 118.284 -0.330826 0.686003 0.648039
-64.1345 3.69326 119.129 -0.288022 0.695123 0.658671
-62.2221 3.72988 119.849 -0.252476 0.687848 0.68053
-60.307 3.78677 120.445 -0.214546 0.674421 0.706489
-58.3731 3.75915 121.054 -0.212766 0.672984 0.708394
-56.3335 3.78035 121.642 -0.204507 0.67381 0.71004
-54.3314 3.77466 122.144 -0.134236 0.668058 0.731896
-54.8543 4.13846 121.703 -0.166242 0.672486 0.721165
-56.6389 4.53001 120.841 -0.208747 0.674031 0.708595
-58.4686 4.8394 119.999 -0.212861 0.672963 0.708386
-60.3078 5.15857 119.106 -0.245465 0.684031 0.686913
-62.0968 5.44353 118.159 -0.253304 0.688018 0.68005
-63.9725 5.63374 117.165 -0.298797 0.693059 0.656036
-65.8192 5.74508 116.152 -0.330726 0.687384 0.646625
-67.5891 5.86331 115.088 -0.354678 0.68964 0.631348
-69.3662 5.9282 113.999 -0.363943 0.687883 0.627983
-71.1093 5.92931 112.972 -0.383931 0.685725 0.618368
-72.8417 5.87216 111.898 -0.406136 0.690828 0.598173
-74.625 5.83016 110.734 -0.401555 0.696422 0.594769
-76.3169 5.80355 109.606 -0.414206 0.705698 0.574825
-77.9898 5.70509 108.44 -0.44669 0.704634 0.551286
-79.6589 5.56222 107.2 -0.468474 0.694903 0.545566
-81.3278 5.41182 105.936 -0.482571 0.694538 0.533604
-82.9261 5.11982 104.762 -0.518133 0.708895 0.478545
-84.5923 4.75159 103.454 -0.526326 0.708012 0.47085
-86.1298 4.45336 102.186 -0.544227 0.697077 0.466559
-87.5683 4.05214 100.844 -0.606673 0.676579 0.41736
-88.1053 3.86062 100.374 -0.606708 0.676559 0.417341
-87.0302 6.16845 98.1842 -0.609582 0.677666 0.411312
-88.5303 5.64651 96.8178 -0.609986 0.677647 0.410746
-90.0411 5.16624 95.3841 -0.6027 0.68095 0.415991
-91.6075 4.70821 93.9182 -0.6002 0.675087 0.428961
-93.0879 4.1137 92.489 -0.669555 0.669131 0.322428
-94.4442 3.44437 91.0584 -0.669777 0.669121 0.321988
-95.8606 2.74604 89.5634 -0.669801 0.669113 0.321953
-97.2549 2.05093 88.094 -0.673865 0.663625 0.324814
-98.5082 1.3915 86.6616 -0.729387 0.63504 0.254399
-97.7498 1.32978 88.5395 -0.68214 0.660854 0.312958
-96.8424 1.31507 90.4944 -0.670002 0.668938 0.3219
-95.9471 1.30736 92.3731 -0.669785 0.66911 0.321994
-95.0738 1.31115 94.1743 -0.666788 0.669651 0.327046
-93.9188 1.30986 96.0362 -0.609966 0.677677 0.410724
-92.7892 1.28568 97.746 -0.606221 0.678488 0.41491
-91.5837 1.27933 99.5111 -0.605393 0.677783 0.417265
-90.4034 1.29424 101.199 -0.605443 0.677618 0.41746
-89.266 1.29152 102.853 -0.605725 0.677325 0.417526
-88.0111 1.28476 104.685 -0.60399 0.677736 0.419358
-86.7683 1.24575 106.295 -0.526474 0.708764 0.469552
-85.3256 1.24175 107.751 -0.48006 0.696772 0.532965
-83.8156 1.24592 109.105 -0.478063 0.699612 0.53103
-82.2631 1.23644 110.53 -0.475657 0.708433 0.521384
-80.721 1.2337 111.957 -0.474941 0.712118 0.517026
-79.2118 1.22468 113.277 -0.405224 0.727319 0.553744
-77.4926 1.23131 114.419 -0.381188 0.715892 0.584974
-75.7812 1.21823 115.552 -0.383537 0.7146 0.585017
-74.0558 1.22946 116.675 -0.388622 0.710143 0.587086
-72.3313 1.23161 117.743 -0.340269 0.714265 0.61159
-70.544 1.25716 118.658 -0.310775 0.706459 0.635858
-68.6264 1.25867 119.562 -0.3014 0.703784 0.643308
-66.8036 1.2525 120.427 -0.308611 0.700098 0.643911
-64.921 1.26399 121.323 -0.288357 0.685758 0.668241
-62.8874 1.29646 122.032 -0.225994 0.675898 0.70149
-60.9602 1.32082 122.593 -0.212867 0.672883 0.708461
-59.0364 1.29154 123.199 -0.212832 0.672904 0.708451
-57.1014 1.30692 123.765 -0.21229 0.672854 0.708661
-55.1406 1.29907 124.269 -0.132695 0.672338 0.728193
-53.0929 1.33887 124.575 -0.112552 0.665431 0.737902
-50.923 1.35499 124.811 -0.0681677 0.639387 0.765857
-48.9117 1.34958 124.99 -0.0685498 0.63384 0.770418
-46.7589 1.38148 125.148 -0.0245033 0.625098 0.780111
-44.7176 1.35961 125.203 -0.0131942 0.618838 0.785408
-42.5405 1.37105 125.23 -0.0131674 0.618772 0.785461
-40.4937 1.42019 125.191 0.0113473 0.610862 0.791656
-39.6371 1.74564 124.949 -0.0195827 0.601056 0.798965
-41.5809 2.43724 124.405 -0.00670579 0.6166 0.787241
-43.4598 3.25262 123.733 -0.0131425 0.618797 0.785441
-45.4004 4.06721 123.058 -0.0134636 0.618837 0.785404
-47.1579 4.79718 122.381 -0.093318 0.631413 0.769811
-49.01 5.2698 121.66 -0.113249 0.655124 0.746985
-50.823 5.73748 120.954 -0.125103 0.669047 0.732615
-52.7122 6.30789 120.11 -0.125141 0.668934 0.732712
-54.5063 6.78562 119.303 -0.192603 0.671114 0.715898
-56.3134 7.10639 118.487 -0.205948 0.673835 0.709599
-58.1023 7.42809 117.62 -0.243724 0.684602 0.686947
-59.946 7.68141 116.688 -0.251562 0.68891 0.679794
-61.8093 7.94775 115.699 -0.28085 0.689485 0.667555
-63.618 8.08912 114.741 -0.297101 0.692311 0.657599
-65.525 8.22933 113.653 -0.348794 0.688994 0.635319
-67.2692 8.30028 112.6 -0.354601 0.690423 0.630535
-69.0684 8.35432 111.507 -0.37414 0.687739 0.622098
-70.8897 8.30921 110.393 -0.391905 0.694719 0.603139
-72.6836 8.26601 109.245 -0.409773 0.689399 0.597341
-74.3385 8.19993 108.111 -0.429367 0.709299 0.559052
-76.0764 8.1023 106.892 -0.435074 0.707371 0.557078
-77.7883 7.99295 105.672 -0.444736 0.70746 0.549266
-79.4077 7.86605 104.476 -0.479523 0.700868 0.527674
-81.0622 7.56344 103.173 -0.526625 0.708138 0.470327
-82.6723 7.20541 101.909 -0.526588 0.708055 0.470492
-84.2675 6.88454 100.617 -0.523673 0.708388 0.473237
-85.8964 6.53508 99.2273 -0.583853 0.680856 0.442198
-86.8475 6.23351 98.3473 -0.608698 0.677658 0.412632
-86.9159 6.20938 98.2861 -0.60902 0.677743 0.412017
