-24.6778 14.751 -142.815 0.85343 0.185928 -0.486917
-23.6723 14.9143 -141.081 0.806706 0.270319 -0.525503
-22.5678 14.9557 -139.364 0.80671 0.270308 -0.525502
-21.3728 14.9528 -137.531 0.803721 0.269965 -0.530238
-20.1178 14.9279 -135.948 0.741738 0.273005 -0.61261
-18.8364 14.9276 -134.363 0.754279 0.260487 -0.602669
-17.5894 14.5524 -132.966 0.752271 0.260951 -0.604974
-16.8346 12.4893 -132.918 0.751721 0.260379 -0.605903
-16.164 10.5407 -132.927 0.74469 0.267698 -0.611372
-15.4067 8.55818 -132.879 0.693887 0.282369 -0.661603
-14.5306 6.66715 -132.764 0.629356 0.267915 -0.729162
-13.9429 5.04821 -132.865 0.61032 0.264767 -0.746598
-15.4954 5.08537 -134.414 0.731183 0.255541 -0.632499
-16.8666 5.11323 -135.916 0.711184 0.246137 -0.658509
-18.2579 5.13085 -137.486 0.752722 0.228431 -0.617437
-19.4907 5.06155 -139.121 0.791777 0.233615 -0.564369
-20.6622 5.06021 -140.81 0.799155 0.232765 -0.554229
-21.8552 5.16822 -142.488 0.80494 0.222148 -0.550202
-22.7966 6.40101 -143.365 0.805586 0.217421 -0.551144
-23.3392 8.47713 -143.328 0.809118 0.223118 -0.543641
-23.7744 10.433 -143.172 0.809138 0.223173 -0.54359
-24.2486 12.4696 -143.042 0.809002 0.222983 -0.543869
-24.6451 14.4748 -142.864 0.852765 0.192237 -0.485631
-24.6763 14.6707 -142.843 0.85343 0.185928 -0.486917
-26.3649 14.461 -145.888 0.863356 0.123574 -0.48923
-26.6345 16.4433 -145.85 0.862498 0.12687 -0.489899
-26.6408 18.2113 -145.379 0.876226 0.145526 -0.459401
-25.671 18.2367 -143.429 0.884499 0.177401 -0.431498
-24.7846 18.2374 -141.612 0.884395 0.177516 -0.431663
-23.8445 18.2453 -139.731 0.860988 0.217934 -0.459386
-22.7406 18.2668 -137.917 0.812829 0.271194 -0.515521
-21.5325 18.2349 -136.15 0.755871 0.277653 -0.592932
-20.1868 18.2523 -134.526 0.735377 0.28008 -0.61707
-18.848 18.2536 -132.925 0.740771 0.273423 -0.613595
-17.4605 18.262 -131.212 0.746119 0.260452 -0.612758
-16.3044 17.3927 -130.259 0.66785 0.28151 -0.689006
-15.5433 15.5051 -130.317 0.626011 0.282566 -0.726636
-14.7793 13.6182 -130.4 0.600815 0.284493 -0.747022
-13.9424 11.6455 -130.478 0.574638 0.275558 -0.770621
-13.1429 9.73863 -130.568 0.574762 0.276623 -0.770148
-12.1265 7.84492 -130.535 0.517512 0.292982 -0.803954
-11.0322 6.09654 -130.604 0.458375 0.33095 -0.824842
-9.94036 4.38981 -130.682 0.457767 0.331 -0.82516
-8.86068 2.63549 -130.787 0.457764 0.331025 -0.825151
-9.28986 1.72003 -131.393 0.457698 0.331064 -0.825172
-11.0581 1.74583 -132.363 0.457769 0.33105 -0.825139
-12.8955 1.72127 -133.394 0.468158 0.329074 -0.820075
-14.5747 1.74427 -134.693 0.694647 0.239687 -0.678244
-15.982 1.75444 -136.218 0.71102 0.246526 -0.658541
-17.3615 1.75828 -137.706 0.711026 0.246529 -0.658533
-18.6256 1.74484 -139.268 0.796961 0.229876 -0.558578
-19.8345 1.74997 -140.95 0.788776 0.207227 -0.578697
-21.1063 1.80072 -142.676 0.811444 0.202609 -0.54806
-22.2485 1.79984 -144.554 0.844437 0.208843 -0.493266
-23.3647 1.8851 -146.349 0.809603 0.263403 -0.524462
-24.0576 3.84277 -146.34 0.781708 0.287662 -0.553338
-24.6286 5.92927 -146.213 0.805916 0.211927 -0.552795
-25.1546 8.01601 -146.187 0.805932 0.210301 -0.553396
-25.5888 10.0185 -146.042 0.80867 0.222413 -0.544597
-26.0487 12.0183 -145.968 0.835998 0.166869 -0.522745
-26.3124 14.0579 -145.897 0.863448 0.119371 -0.49011
-26.3499 14.3516 -145.889 0.86335 0.123568 -0.489243
-22.6595 10.0018 -141.688 0.809632 0.223347 -0.542781
-21.4129 9.38772 -140.085 0.806834 0.222718 -0.547189
-20.193 8.80723 -138.558 0.797683 0.229168 -0.557838
-18.8706 8.24801 -137.077 0.752061 0.228777 -0.618115
-17.5369 7.72961 -135.671 0.729962 0.245122 -0.638021
-16.1139 7.21712 -134.276 0.741216 0.25696 -0.620137
-16.0159 7.17838 -134.173 0.746889 0.259178 -0.61236
-17.6454 11.6247 -134.297 0.753584 0.259025 -0.604167
-19.0247 12.2856 -135.736 0.754965 0.256086 -0.603695
-20.4625 12.9917 -137.228 0.76223 0.260009 -0.59279
-20.8536 13.2001 -137.659 0.785749 0.26699 -0.557955
-20.9804 13.2701 -137.804 0.792275 0.260567 -0.55173
