-21.3585 13.7357 -142.544 0.795055 0.2683 -0.54397
-20.3457 14.0258 -140.918 0.795138 0.269321 -0.543343
-19.1567 14.0088 -139.251 0.776447 0.271274 -0.568806
-17.8042 14.0188 -137.522 0.745337 0.25672 -0.615278
-16.489 14.006 -135.935 0.744802 0.257715 -0.61551
-15.089 14.0165 -134.313 0.664812 0.295782 -0.685811
-13.7358 13.0476 -133.516 0.617198 0.299375 -0.72762
-12.7515 11.2475 -133.406 0.586412 0.275555 -0.761702
-11.7186 9.453 -133.319 0.546214 0.295031 -0.783897
-10.6103 7.6493 -133.352 0.457814 0.331065 -0.825107
-9.50773 5.97095 -133.425 0.440196 0.340862 -0.830686
-11.25 5.85453 -134.429 0.460755 0.326269 -0.825377
-12.9806 5.88452 -135.551 0.601304 0.268885 -0.752419
-14.53 5.98391 -136.935 0.714242 0.252294 -0.652845
-15.8887 5.98736 -138.542 0.740238 0.248834 -0.624603
-17.1447 6.01379 -140.133 0.773262 0.247038 -0.583984
-18.3639 5.9803 -141.789 0.784154 0.255436 -0.565558
-19.4824 6.57742 -143.07 0.785041 0.254132 -0.564912
-20.086 8.66072 -143.022 0.788711 0.240295 -0.565857
-20.591 10.5949 -142.894 0.795084 0.24309 -0.555652
-21.0847 12.5702 -142.701 0.79947 0.255934 -0.543455
-21.3232 13.5996 -142.56 0.796451 0.265076 -0.543496
-23.4589 13.5096 -146.057 0.847191 0.11468 -0.518764
-23.186 11.473 -146.13 0.821263 0.187677 -0.538013
-22.7212 9.43192 -146.311 0.77999 0.240395 -0.577777
-22.1997 7.49813 -146.364 0.769214 0.234474 -0.594417
-21.5682 5.53007 -146.452 0.772361 0.287188 -0.566553
-20.8905 3.50308 -146.54 0.782288 0.278242 -0.557321
-20.0644 2.07351 -145.906 0.820001 0.247431 -0.515829
-18.8881 2.05316 -144.243 0.780136 0.248092 -0.574316
-17.7018 2.05863 -142.63 0.78014 0.248099 -0.574307
-16.435 2.0852 -140.891 0.782178 0.254087 -0.568892
-15.1947 2.02816 -139.258 0.74724 0.232409 -0.622534
-13.8234 2.01763 -137.743 0.696182 0.278454 -0.66166
-12.1304 1.99415 -136.467 0.460626 0.332227 -0.823073
-10.38 2.01722 -135.498 0.436138 0.344975 -0.831129
-8.54724 2.08776 -134.635 0.359007 0.393866 -0.846154
-6.56963 2.12709 -133.709 0.434006 0.211432 -0.875749
-4.56213 2.11149 -132.977 0.210567 0.171887 -0.962295
-2.59916 2.05467 -132.576 0.210563 0.156767 -0.964929
-0.502129 1.98068 -132.209 0.152538 0.289137 -0.944829
1.59166 1.95843 -131.956 0.129408 0.397764 -0.908316
3.64857 1.92603 -131.627 0.147086 0.400457 -0.904389
5.66058 1.97763 -131.381 0.072638 0.404537 -0.911632
7.67204 1.98507 -131.217 0.0755409 0.410377 -0.908782
9.70695 1.96187 -131.055 0.0776603 0.413465 -0.907202
11.7736 1.96165 -130.888 0.0668712 0.414067 -0.907787
13.7883 1.96046 -130.74 0.0683236 0.417183 -0.90625
15.8211 1.9835 -130.574 0.0696506 0.419035 -0.905295
17.8448 1.9434 -130.432 0.0745026 0.4087 -0.909623
19.9354 1.94939 -130.266 0.0681065 0.401198 -0.913456
22.0765 1.95106 -130.113 0.0635409 0.401979 -0.913442
24.1312 1.91735 -129.985 0.0639853 0.401868 -0.913459
26.1675 1.92402 -129.839 0.0672698 0.394454 -0.916449
28.2539 1.99549 -129.658 0.0644095 0.391227 -0.918037
30.2607 2.06447 -129.485 0.070581 0.387049 -0.919354
32.2971 1.97487 -129.369 0.0674955 0.385843 -0.920092
34.4082 1.94759 -129.221 0.0707988 0.383864 -0.920671
36.4193 1.94546 -129.069 0.0675528 0.382096 -0.92165
38.4295 2.02961 -128.9 0.059681 0.381489 -0.922445
40.5243 2.04542 -128.759 0.0564857 0.380646 -0.922994
42.6115 1.98616 -128.653 0.0605136 0.378442 -0.923645
44.6312 1.98497 -128.518 0.0623721 0.376997 -0.924112
46.6721 1.99849 -128.388 0.0470209 0.375994 -0.925428
48.7319 1.99893 -128.287 0.0434515 0.378832 -0.924445
50.7661 1.98632 -128.197 0.0432093 0.379144 -0.924328
52.7753 2.02578 -128.084 0.0462254 0.381861 -0.923063
54.8045 2.01975 -127.982 0.0499535 0.382805 -0.922477
56.9208 1.97719 -127.883 0.0493654 0.384091 -0.921975
58.9277 1.9666 -127.783 0.047746 0.386386 -0.921101
61.0169 1.94423 -127.687 0.0475272 0.393734 -0.917994
63.0222 1.93656 -127.595 0.0422377 0.400043 -0.915522
65.0792 1.93683 -127.499 0.0447786 0.402907 -0.914145
67.1505 1.95339 -127.377 0.053383 0.408656 -0.911125
69.3266 1.94795 -127.244 0.0577989 0.411916 -0.909387
71.3597 1.94621 -127.103 0.0720338 0.40446 -0.911715
73.3806 1.93932 -126.945 0.0730524 0.401897 -0.912765
75.4058 1.94124 -126.788 0.0690061 0.39535 -0.915934
77.406 1.95034 -126.635 0.0689293 0.391759 -0.917482
78.8861 3.03245 -126.058 0.0714341 0.392555 -0.91695
80.0577 4.57982 -125.304 0.0722799 0.392265 -0.917008
81.2324 6.14043 -124.543 0.0747767 0.39165 -0.917071
82.3277 7.66835 -123.804 0.0737801 0.389659 -0.917999
83.5213 9.28984 -123.02 0.0729569 0.389344 -0.918199
84.5994 10.8787 -122.264 0.0705645 0.388071 -0.918924
85.6604 12.5425 -121.481 0.0696153 0.388379 -0.918866
86.737 14.0855 -120.743 0.0721544 0.391111 -0.917511
87.7954 15.7057 -119.97 0.071704 0.39015 -0.917955
88.8293 17.3125 -119.208 0.0721264 0.388444 -0.918645
89.786 18.9781 -118.432 0.0710029 0.386806 -0.919424
89.5792 20.6114 -117.758 0.0716672 0.392676 -0.91688
88.1841 22.174 -117.199 0.0798407 0.395101 -0.915162
86.7835 23.5872 -116.715 0.0812335 0.39328 -0.915823
85.4367 25.0266 -116.217 0.0800268 0.392228 -0.91638
84.0936 26.4485 -115.726 0.079416 0.390646 -0.917108
82.7243 27.8681 -115.241 0.076808 0.387919 -0.918487
81.3522 29.2821 -114.761 0.0764721 0.386564 -0.919087
79.9897 30.6752 -114.288 0.076372 0.386503 -0.91912
78.6052 32.1306 -113.791 0.0761742 0.386424 -0.91917
77.2008 33.6082 -113.286 0.0757134 0.386416 -0.919212
75.8385 35.0437 -112.794 0.0751529 0.386738 -0.919122
74.4049 36.5297 -112.292 0.0788157 0.385154 -0.919481
72.9712 37.9397 -111.824 0.0781015 0.384969 -0.919619
71.5057 39.2809 -111.387 0.0781073 0.384904 -0.919646
70.0625 40.6023 -110.956 0.0781118 0.38489 -0.919651
68.5864 41.931 -110.526 0.0781331 0.384904 -0.919643
67.1216 43.3333 -110.063 0.0781053 0.384904 -0.919646
65.6514 44.6592 -109.633 0.0781929 0.384826 -0.919671
64.1515 46.015 -109.194 0.0790859 0.384325 -0.919804
62.6815 47.3187 -108.798 0.0949973 0.37557 -0.921913
61.1574 48.6286 -108.421 0.0949238 0.376186 -0.921669
59.5815 49.9807 -108.032 0.0949839 0.376329 -0.921604
58.1051 51.3022 -107.644 0.0950048 0.376325 -0.921604
56.6176 52.5897 -107.272 0.0949908 0.376335 -0.921601
54.9816 53.9846 -106.871 0.0953897 0.376341 -0.921557
53.3594 55.4153 -106.456 0.0968095 0.375687 -0.921676
51.7126 56.5728 -106.175 0.105942 0.364666 -0.925092
49.9809 57.6078 -105.961 0.093029 0.368048 -0.925132
48.1776 58.7407 -105.669 0.0848471 0.36993 -0.925176
46.5317 59.8667 -105.375 0.0853443 0.36597 -0.926705
44.8629 60.9733 -105.091 0.0853351 0.365956 -0.926711
43.1309 62.1609 -104.782 0.0853424 0.365971 -0.926705
41.4939 63.2739 -104.492 0.0830206 0.365852 -0.926963
39.8195 64.3831 -104.196 0.0723772 0.36322 -0.928888
38.0379 65.5686 -103.868 0.0603607 0.359446 -0.931212
36.3139 66.5785 -103.583 0.0557183 0.363802 -0.929808
34.5336 67.4775 -103.311 0.0395521 0.363761 -0.930652
32.6438 68.4455 -103.02 0.043033 0.360395 -0.931806
30.8897 69.4597 -102.709 0.0430461 0.360395 -0.931806
29.1248 70.4006 -102.427 0.0430466 0.36039 -0.931808
27.3555 71.3388 -102.146 0.0430487 0.360394 -0.931806
25.5637 72.2807 -101.864 0.043059 0.360333 -0.931829
23.6476 73.2318 -101.589 0.0501346 0.359522 -0.931789
21.5387 73.6742 -101.581 0.0762624 0.341208 -0.936889
19.5607 74.1108 -101.583 0.0759011 0.340954 -0.937011
17.6001 74.5086 -101.57 0.0430446 0.337776 -0.940242
15.6004 74.827 -101.589 0.0728059 0.317791 -0.945361
13.6308 75.1462 -101.634 0.073022 0.317372 -0.945486
11.6388 75.5124 -101.652 0.0499489 0.317843 -0.946827
9.56654 75.5162 -101.783 0.0798012 0.292027 -0.953075
7.55045 75.5521 -101.906 0.0550074 0.29937 -0.95255
5.55255 75.5877 -102.01 0.0549961 0.299276 -0.95258
3.54207 75.6223 -102.115 0.0550266 0.299247 -0.952588
2.17001 74.7871 -102.456 0.0544606 0.297457 -0.953181
2.15347 72.8398 -103.061 0.0530219 0.29601 -0.953712
2.15123 70.8257 -103.687 0.0530346 0.296007 -0.953712
2.14515 68.8756 -104.292 0.0530313 0.295988 -0.953718
2.13809 66.9002 -104.906 0.0528301 0.295908 -0.953754
2.12646 64.9107 -105.529 0.0413738 0.305677 -0.951236
2.15203 62.9703 -106.155 0.0313141 0.309142 -0.9505
2.12606 60.9555 -106.807 0.0294634 0.302651 -0.952645
2.135 59.0285 -107.407 0.0252322 0.295018 -0.955159
2.14898 57.1132 -107.998 0.0252394 0.295003 -0.955163
2.12733 55.027 -108.644 0.0209658 0.294737 -0.955348
2.12176 53.1035 -109.259 -0.0145094 0.315182 -0.94892
2.14101 51.1554 -109.921 -0.0278585 0.324515 -0.94547
2.14338 49.19 -110.607 -0.02346 0.337096 -0.941178
2.14466 47.1616 -111.344 -0.024248 0.342038 -0.939373
2.17146 45.2389 -112.045 -0.0242286 0.34204 -0.939373
2.14858 43.3127 -112.746 -0.0250511 0.342474 -0.939193
2.16189 41.3402 -113.467 -0.0265527 0.343406 -0.938812
3.98759 40.7039 -113.752 -0.0268075 0.343559 -0.938749
5.97774 40.3346 -113.928 -0.0112904 0.34325 -0.939176
8.05161 39.9533 -114.101 -0.0167387 0.347967 -0.937357
10.0134 39.6003 -114.268 -0.0168189 0.348115 -0.937301
12.0523 39.1939 -114.455 -0.0168333 0.348107 -0.937304
14.2144 38.846 -114.623 -0.0162059 0.348062 -0.937332
16.1734 38.4109 -114.814 -0.011073 0.350148 -0.936629
18.0327 37.6282 -115.113 0.00384657 0.349066 -0.937088
19.9133 36.8765 -115.374 0.00715553 0.352753 -0.935689
21.8361 36.0721 -115.663 0.00731855 0.354033 -0.935204
23.7956 35.2578 -115.961 0.000959217 0.356775 -0.93419
25.7118 34.37 -116.31 -0.00604895 0.373316 -0.927685
27.524 33.5502 -116.665 -0.00903163 0.384942 -0.922897
29.3967 32.6873 -117.04 -0.00320052 0.377969 -0.925813
31.301 31.8781 -117.289 0.0433183 0.378435 -0.924607
33.2462 30.9834 -117.57 0.038158 0.373174 -0.926976
34.9652 30.0126 -117.889 0.0386273 0.372671 -0.927159
36.9 28.9895 -118.207 0.0526485 0.371765 -0.926833
38.781 28.0764 -118.447 0.0641537 0.36008 -0.930713
40.5925 27.1835 -118.667 0.0641468 0.359402 -0.930975
42.5077 26.1953 -118.921 0.0611105 0.360345 -0.930815
44.2338 25.1888 -119.194 0.0625446 0.355953 -0.932408
46.0728 24.0773 -119.494 0.0622662 0.353497 -0.933361
47.8592 23.0281 -119.773 0.0596256 0.353461 -0.933546
49.4729 21.8909 -120.142 0.027967 0.359444 -0.932735
50.0165 20.092 -120.831 0.0377124 0.366507 -0.929651
48.9452 18.5093 -121.507 0.0252015 0.377867 -0.925517
47.3366 17.2232 -122.109 0.0477785 0.382228 -0.922832
45.737 15.9619 -122.714 0.0479437 0.381552 -0.923103
44.1814 14.7763 -123.284 0.0477188 0.380451 -0.923569
42.616 13.6431 -123.837 0.0564532 0.382725 -0.922136
40.8798 12.6278 -124.367 0.0559585 0.38188 -0.922516
39.2089 11.6104 -124.887 0.0540967 0.382538 -0.922355
37.4867 10.5576 -125.422 0.0520882 0.382639 -0.922428
35.7808 9.57387 -125.931 0.0569124 0.387218 -0.92023
33.9281 8.78911 -126.39 0.0692064 0.387716 -0.919177
32.1111 8.01668 -126.852 0.0685651 0.386133 -0.919891
30.2024 7.21397 -127.326 0.0643972 0.384773 -0.920762
28.301 6.38047 -127.794 0.0508248 0.391402 -0.918815
26.2869 5.72918 -128.192 0.0614508 0.39913 -0.914833
24.3435 5.23533 -128.536 0.0605151 0.391896 -0.918017
22.3148 4.6854 -128.903 0.0598305 0.395797 -0.916386
20.3535 4.15967 -129.255 0.0590106 0.406027 -0.911954
18.2023 3.72569 -129.601 0.0665155 0.411817 -0.908836
16.2163 3.55471 -129.823 0.0673558 0.412267 -0.908569
14.0938 3.363 -130.07 0.0690021 0.415921 -0.906779
12.0828 3.17323 -130.31 0.0665403 0.417646 -0.90617
10.0219 3.00737 -130.547 0.0812013 0.424002 -0.902014
7.88051 3.12113 -130.678 0.0785176 0.425788 -0.90141
5.80036 3.25758 -130.792 0.0726577 0.429683 -0.900052
3.80972 3.39556 -130.931 0.128916 0.429534 -0.893789
1.73453 3.92129 -131.016 0.169601 0.43656 -0.883544
-0.156553 4.60438 -131.076 0.187845 0.44222 -0.876976
-2.13657 5.07885 -131.166 0.115498 0.549501 -0.827472
-4.07476 5.56739 -131.119 0.174404 0.547901 -0.81783
-5.7446 6.71342 -131.144 0.454546 0.371831 -0.809401
-6.92473 8.37427 -131.1 0.461339 0.348372 -0.815968
-8.09547 10.0132 -131.033 0.429957 0.353769 -0.830653
-9.24904 11.7403 -130.955 0.457111 0.331094 -0.825485
-10.4157 13.5811 -130.895 0.506412 0.298094 -0.809127
-11.4302 15.372 -130.938 0.554828 0.286922 -0.780924
-12.2495 17.3223 -130.805 0.552805 0.2808 -0.78455
-13.7891 17.9441 -131.669 0.555168 0.286396 -0.780875
-15.3872 17.9538 -132.995 0.701782 0.284871 -0.65293
-16.6908 17.9605 -134.524 0.74477 0.257748 -0.615535
-18.0075 17.9244 -136.132 0.744767 0.257758 -0.615535
-19.3001 17.9626 -137.681 0.746532 0.255657 -0.614272
-20.568 17.9161 -139.329 0.781904 0.270116 -0.561839
-21.6957 17.9246 -141.106 0.858986 0.20813 -0.467787
-22.6145 17.9174 -142.933 0.880554 0.184013 -0.436765
-23.5081 17.9167 -144.734 0.880555 0.184017 -0.436762
-23.9509 16.9941 -145.974 0.873307 0.157189 -0.461047
-23.6679 14.9979 -146.053 0.847881 0.12423 -0.515427
-23.4695 13.5961 -146.055 0.847032 0.114633 -0.519034
6.43883 44.1964 -112.528 -0.00892086 0.341225 -0.939939
8.52636 43.7774 -112.7 -0.00936624 0.341948 -0.939672
10.5147 43.4026 -112.865 -0.0163981 0.347279 -0.937619
12.6053 42.9597 -113.067 -0.0168102 0.3481 -0.937307
14.5808 42.6703 -113.208 -0.0140411 0.349551 -0.936812
16.5709 42.2782 -113.37 -0.00194821 0.351177 -0.936307
18.529 41.6645 -113.603 -0.00156649 0.351114 -0.936331
20.3762 40.9073 -113.874 0.0149264 0.346159 -0.938056
22.315 40.1176 -114.133 0.0144126 0.347872 -0.937431
24.2915 39.3221 -114.414 0.00662901 0.354162 -0.935161
26.2432 38.4905 -114.726 4.36433e-05 0.35676 -0.934196
28.0459 37.6464 -115.048 8.78781e-05 0.356855 -0.93416
29.8256 36.7478 -115.382 0.0233839 0.364295 -0.93099
31.6861 35.8568 -115.67 0.0361797 0.370325 -0.928197
33.5419 35.0203 -115.931 0.0368165 0.372693 -0.927224
35.4798 34.0532 -116.242 0.0379513 0.373155 -0.926992
37.2785 33.0403 -116.562 0.0535323 0.371525 -0.926878
39.1197 32.0781 -116.839 0.0548035 0.37134 -0.926878
41.0343 31.1587 -117.093 0.0568361 0.367868 -0.928135
42.899 30.2475 -117.327 0.0615215 0.360748 -0.930632
44.67 29.3094 -117.573 0.0634806 0.362169 -0.929948
46.449 28.2985 -117.846 0.0647983 0.36526 -0.928647
48.1802 27.3033 -118.116 0.0640514 0.364527 -0.928987
50.0096 26.2652 -118.395 0.0662023 0.36884 -0.927132
51.7293 25.0733 -118.75 0.0661372 0.37153 -0.926062
53.1162 23.5108 -119.28 0.0621104 0.373093 -0.925713
53.9196 21.7136 -119.952 0.0600431 0.373998 -0.925484
54.0449 19.7862 -120.728 0.0607549 0.377709 -0.923929
53.5342 17.8657 -121.538 0.0529964 0.373598 -0.926076
52.4276 16.3445 -122.214 0.0520587 0.373704 -0.926086
50.8798 14.9957 -122.842 0.0490497 0.376245 -0.925221
49.295 13.7246 -123.448 0.0508642 0.378396 -0.924245
47.6607 12.413 -124.076 0.0503406 0.378821 -0.9241
45.9654 11.1892 -124.669 0.0476796 0.380342 -0.923616
44.2684 9.9881 -125.254 0.0547535 0.38164 -0.922688
42.5598 9.04784 -125.747 0.0558032 0.381823 -0.922549
40.8282 7.98073 -126.293 0.0557482 0.381399 -0.922728
39.0827 6.93906 -126.829 0.0568956 0.380653 -0.922966
37.279 6.01477 -127.327 0.0608483 0.381267 -0.92246
38.4367 5.84151 -127.323 0.0596372 0.381021 -0.922641
40.478 5.86198 -127.188 0.0557243 0.380561 -0.923075
42.5205 5.8276 -127.079 0.0557208 0.380555 -0.923078
44.5608 5.81023 -126.961 0.0592786 0.378621 -0.923651
46.5922 5.81483 -126.841 0.0480617 0.37653 -0.925157
48.6653 5.79341 -126.739 0.0510365 0.38096 -0.923182
50.7978 5.80556 -126.62 0.0470647 0.381311 -0.923248
52.923 5.80663 -126.512 0.0468834 0.381925 -0.923003
54.9738 5.80258 -126.406 0.0515193 0.382214 -0.922636
57.0934 5.77417 -126.298 0.0522592 0.382298 -0.92256
59.1545 5.73826 -126.195 0.0527256 0.383049 -0.922222
61.1745 5.71177 -126.096 0.0481925 0.386283 -0.92112
63.2228 5.72076 -125.981 0.0532806 0.390391 -0.919106
65.3032 5.72334 -125.858 0.0542308 0.391461 -0.918595
67.3306 5.73994 -125.726 0.0580784 0.390353 -0.918832
69.5273 5.7076 -125.6 0.0603044 0.391077 -0.91838
71.6416 5.67298 -125.472 0.0650328 0.391233 -0.917991
73.6999 5.68791 -125.314 0.0681024 0.391688 -0.917574
75.7982 5.78476 -125.117 0.0683972 0.391602 -0.917589
76.9855 7.22339 -124.414 0.0709693 0.390773 -0.917747
78.0765 8.73977 -123.684 0.0717246 0.390331 -0.917876
79.2783 10.3538 -122.904 0.0718044 0.389806 -0.918093
80.4072 11.9258 -122.149 0.0720682 0.388585 -0.91859
81.5292 13.5785 -121.362 0.0722381 0.388711 -0.918523
82.6706 15.2281 -120.574 0.072175 0.388474 -0.918629
83.7352 16.7871 -119.832 0.0728341 0.387104 -0.919155
84.7115 18.3754 -119.085 0.0728963 0.387129 -0.919139
84.7825 20.0788 -118.362 0.072967 0.387249 -0.919083
83.3875 21.4935 -117.877 0.0730984 0.387313 -0.919046
82.0006 23.0138 -117.348 0.0730051 0.38582 -0.919681
80.648 24.4188 -116.866 0.0727356 0.385683 -0.91976
79.3025 25.8509 -116.372 0.0727729 0.385609 -0.919788
77.9212 27.2377 -115.9 0.0732634 0.385627 -0.919741
76.5169 28.6714 -115.411 0.0740546 0.384949 -0.919962
75.0945 30.1393 -114.912 0.0740696 0.384826 -0.920012
73.7186 31.6011 -114.412 0.0740794 0.384327 -0.92022
72.2951 33.1275 -113.893 0.0771773 0.383028 -0.920507
70.927 34.5279 -113.425 0.077267 0.383647 -0.920242
69.4648 35.9189 -112.968 0.0779717 0.384851 -0.919679
67.9557 37.2863 -112.523 0.0781023 0.384993 -0.919609
66.4501 38.6031 -112.1 0.0781354 0.384893 -0.919648
65.0159 39.9763 -111.647 0.0786416 0.384797 -0.919645
63.4958 41.3342 -111.21 0.0791699 0.384909 -0.919553
62.0923 42.7338 -110.745 0.0791062 0.384597 -0.919689
60.5884 44.0498 -110.346 0.0950248 0.375731 -0.921844
58.9937 45.4116 -109.955 0.0949963 0.375562 -0.921916
57.3765 46.8183 -109.549 0.0949431 0.37552 -0.921938
55.8093 48.1504 -109.164 0.0913509 0.374269 -0.92281
54.2238 49.5134 -108.774 0.0942255 0.371674 -0.923569
52.7116 50.7993 -108.409 0.0960147 0.375197 -0.921959
51.1093 52.2214 -107.995 0.0960988 0.37639 -0.921464
49.5613 53.4805 -107.644 0.0976679 0.370688 -0.923608
47.8396 54.4852 -107.425 0.0833151 0.374823 -0.923345
46.0592 55.5301 -107.158 0.0814298 0.375297 -0.923321
44.356 56.6823 -106.84 0.081973 0.373958 -0.923815
42.6567 57.8158 -106.541 0.0801967 0.364505 -0.927742
40.875 59.0259 -106.206 0.0614258 0.360189 -0.930855
39.2115 60.1706 -105.873 0.058656 0.357834 -0.931941
37.5086 61.2781 -105.555 0.0567745 0.356616 -0.932524
35.7987 62.4111 -105.228 0.056805 0.356462 -0.932582
33.9493 63.471 -104.922 0.0421605 0.361025 -0.931601
32.1004 64.392 -104.631 0.0351592 0.370073 -0.928337
30.3038 65.356 -104.324 0.0416719 0.361996 -0.931248
28.5083 66.3925 -104.005 0.0430522 0.360401 -0.931803
26.6976 67.3908 -103.703 0.0430503 0.360394 -0.931806
24.8499 68.3794 -103.407 0.0438091 0.360405 -0.931767
22.9222 69.3104 -103.139 0.0450947 0.360473 -0.931679
20.9294 69.9108 -103.01 0.0567334 0.348599 -0.935549
18.968 70.3344 -103.006 0.0741153 0.342757 -0.936496
16.879 70.7082 -102.985 0.0378435 0.342069 -0.938913
14.8857 70.9463 -102.979 0.0418081 0.341392 -0.938991
12.8952 71.2171 -103.01 0.0723614 0.317381 -0.945533
10.9007 71.5807 -103.009 0.0466606 0.317865 -0.946987
8.88581 71.6227 -103.094 0.045772 0.315876 -0.947696
6.70426 71.7063 -103.167 0.0440452 0.303639 -0.951768
6.28164 69.9439 -103.751 0.0326619 0.309376 -0.950379
6.25383 67.9794 -104.39 0.0347321 0.308668 -0.950536
6.22491 65.9897 -105.038 0.0349456 0.309379 -0.950296
6.21105 63.995 -105.687 0.0349504 0.308365 -0.950626
6.21116 62.0906 -106.305 0.0348957 0.308832 -0.950476
6.24316 60.1411 -106.945 0.0230022 0.320458 -0.946948
6.21653 58.1849 -107.615 -0.00191295 0.326289 -0.945267
6.24005 56.164 -108.311 -0.00855278 0.326548 -0.945141
6.25331 54.2241 -108.979 -0.00452806 0.325266 -0.945609
6.21392 52.2628 -109.652 -0.0108018 0.323704 -0.946097
6.25233 50.2755 -110.337 -0.0100845 0.330187 -0.943862
6.24901 48.2756 -111.041 -0.0172667 0.339491 -0.94045
6.23374 46.3544 -111.741 -0.0131262 0.344047 -0.93886
6.30923 44.3556 -112.469 -0.00891629 0.342175 -0.939594
6.40604 44.2404 -112.512 -0.00880574 0.341519 -0.939834
8.32437 46.863 -111.576 -0.00875379 0.341656 -0.939784
10.4931 46.8693 -111.594 -0.0087477 0.341643 -0.939789
12.4964 46.8758 -111.613 -0.0135719 0.345575 -0.938293
14.5558 46.8844 -111.637 -0.00328385 0.350755 -0.936461
16.6596 46.8853 -111.641 -0.000789873 0.354241 -0.935154
18.6951 46.8843 -111.639 0.00176588 0.357023 -0.934094
20.7916 46.8824 -111.635 0.00299792 0.357578 -0.933878
22.8607 46.8755 -111.618 0.0142008 0.351506 -0.936078
25.0351 46.8618 -111.584 0.0176227 0.351077 -0.936181
27.0449 46.841 -111.53 0.0388286 0.353612 -0.934586
29.0754 46.8122 -111.456 0.0355316 0.356031 -0.933799
31.0787 46.7895 -111.398 0.0290297 0.361114 -0.93207
33.1603 46.764 -111.333 0.0390727 0.362573 -0.931136
35.2464 46.7339 -111.256 0.0395142 0.362635 -0.931093
37.3467 46.7036 -111.178 0.0396017 0.362632 -0.931091
39.3492 46.6741 -111.103 0.0415114 0.361769 -0.931343
41.4017 46.6347 -111.003 0.0616351 0.364755 -0.929061
43.4062 46.589 -110.886 0.063299 0.36642 -0.928294
45.5059 46.5403 -110.762 0.06361 0.366523 -0.928232
47.6695 46.4837 -110.619 0.0858667 0.36507 -0.927012
49.7395 46.4144 -110.443 0.0913926 0.365013 -0.926506
51.792 46.3454 -110.269 0.0890918 0.367513 -0.925741
54.0077 46.2746 -110.09 0.0839376 0.374782 -0.923305
54.9635 46.2448 -110.016 0.0841421 0.374922 -0.92323
58.8144 42.9341 -110.983 0.0949888 0.375574 -0.921912
56.7571 43.0071 -111.163 0.0916572 0.375842 -0.92214
54.6411 43.0748 -111.332 0.0839527 0.374775 -0.923307
52.5892 43.139 -111.492 0.0839407 0.374803 -0.923297
50.4388 43.2062 -111.66 0.0839492 0.374777 -0.923306
48.4044 43.2698 -111.82 0.0837077 0.374545 -0.923422
46.366 43.3297 -111.97 0.0664729 0.365571 -0.928407
44.3016 43.3767 -112.089 0.0613879 0.364449 -0.929198
42.149 43.4255 -112.212 0.0613993 0.364453 -0.929195
39.9881 43.4684 -112.32 0.0417519 0.361815 -0.931315
37.8554 43.5008 -112.401 0.0408116 0.36168 -0.931409
35.8499 43.531 -112.477 0.0403374 0.361936 -0.93133
33.6812 43.563 -112.557 0.0390499 0.362531 -0.931153
31.5384 43.5895 -112.623 0.0290241 0.361105 -0.932073
29.5279 43.6112 -112.678 0.0290439 0.361144 -0.932058
27.4824 43.6335 -112.733 0.0313762 0.36054 -0.932216
25.4573 43.6513 -112.778 0.015926 0.348643 -0.93712
23.4299 43.6639 -112.809 0.0161491 0.345801 -0.938169
21.4204 43.6756 -112.838 0.0135763 0.344537 -0.938674
19.2783 43.6804 -112.848 -0.00101352 0.350846 -0.936433
18.7233 43.6803 -112.848 -0.00156143 0.351202 -0.936299
26.7532 40.4436 -113.98 0.000238518 0.356716 -0.934213
28.7722 40.4326 -113.955 0.0317203 0.369575 -0.928659
30.7865 40.4077 -113.894 0.032775 0.369913 -0.928488
32.8052 40.3825 -113.832 0.0338462 0.367229 -0.929514
34.9148 40.3513 -113.756 0.0415572 0.36803 -0.928885
37.0926 40.3175 -113.673 0.0418523 0.365082 -0.930034
39.1074 40.2862 -113.596 0.0416287 0.363685 -0.930591
41.2234 40.2524 -113.512 0.0478207 0.360691 -0.931459
43.2973 40.206 -113.396 0.063607 0.362072 -0.929977
45.2995 40.1582 -113.277 0.0642723 0.360184 -0.930665
47.3214 40.1092 -113.155 0.0678011 0.359931 -0.930512
49.3193 40.054 -113.017 0.0762081 0.362254 -0.928959
51.4125 39.9941 -112.868 0.0792647 0.363867 -0.928072
53.4614 39.9324 -112.714 0.0821075 0.373233 -0.924097
55.5425 39.8669 -112.552 0.083934 0.374779 -0.923307
57.6294 39.798 -112.382 0.0927694 0.374344 -0.922638
59.8067 39.7246 -112.201 0.0817966 0.383946 -0.919725
61.8935 39.6621 -112.047 0.0791591 0.384914 -0.919552
62.3699 39.6478 -112.012 0.0791649 0.384906 -0.919555
65.9234 36.3748 -113.075 0.0769633 0.383231 -0.92044
63.8015 36.4378 -113.229 0.0793451 0.381015 -0.921158
61.7737 36.4991 -113.378 0.079342 0.38128 -0.921049
59.6669 36.5625 -113.533 0.0794071 0.381285 -0.921041
57.6121 36.623 -113.682 0.0734831 0.376544 -0.92348
55.5123 36.6814 -113.826 0.0754643 0.365834 -0.927616
53.4232 36.741 -113.973 0.0761 0.36268 -0.928801
51.3864 36.7992 -114.117 0.0762189 0.36228 -0.928948
49.3162 36.8584 -114.264 0.0758435 0.362184 -0.929016
47.2185 36.9135 -114.4 0.0642654 0.360189 -0.930663
45.1281 36.9645 -114.526 0.0666986 0.363796 -0.929087
43.0099 37.0184 -114.659 0.0680557 0.364927 -0.928546
40.9324 37.0663 -114.778 0.049275 0.363941 -0.930118
38.9195 37.1034 -114.869 0.0466178 0.365596 -0.929605
36.8252 37.1378 -114.952 0.0419863 0.37064 -0.927827
34.7862 37.1693 -115.028 0.0371214 0.367946 -0.929106
33.4452 37.1883 -115.073 0.0366234 0.367894 -0.929146
39.8166 33.8943 -116.078 0.049718 0.364522 -0.929867
41.8671 33.8547 -115.982 0.0593463 0.363946 -0.929528
43.9477 33.8028 -115.854 0.0680841 0.36495 -0.928534
46.0859 33.7479 -115.719 0.0680389 0.365097 -0.92848
48.1145 33.6961 -115.592 0.0673272 0.36648 -0.927987
50.227 33.6409 -115.456 0.0720099 0.369634 -0.926383
52.3773 33.5818 -115.31 0.0729194 0.370493 -0.925968
54.3961 33.5262 -115.174 0.0729188 0.370514 -0.92596
56.4814 33.4703 -115.036 0.0676615 0.372163 -0.925698
58.5997 33.4169 -114.905 0.0692795 0.373715 -0.924953
60.6673 33.3611 -114.769 0.0754663 0.377597 -0.92289
62.6832 33.3011 -114.622 0.0793668 0.380949 -0.921183
64.7622 33.2384 -114.47 0.0769657 0.380408 -0.92161
66.8143 33.1798 -114.328 0.0741329 0.381511 -0.921387
68.8792 33.12 -114.183 0.077015 0.382922 -0.920565
69.5566 33.1 -114.134 0.0771623 0.383008 -0.920517
72.6902 29.8401 -115.23 0.074218 0.384838 -0.919995
70.6778 29.8991 -115.372 0.0770777 0.383051 -0.920506
68.6355 29.9582 -115.515 0.07404 0.381391 -0.921444
66.5637 30.017 -115.657 0.0739664 0.381369 -0.921459
64.4607 30.0773 -115.803 0.0772772 0.380698 -0.921465
62.2921 30.1388 -115.952 0.0700452 0.37374 -0.924885
60.1484 30.1956 -116.091 0.0695155 0.373727 -0.92493
57.9229 30.2537 -116.233 0.0657323 0.373611 -0.925254
55.7914 30.3056 -116.359 0.0639667 0.373247 -0.925524
53.7371 30.3599 -116.492 0.072909 0.370518 -0.925959
51.7402 30.4138 -116.625 0.0687825 0.368147 -0.92722
49.707 30.4662 -116.754 0.0679965 0.367072 -0.927704
47.6735 30.5179 -116.881 0.0670152 0.367085 -0.92777
46.3625 30.5511 -116.963 0.0670008 0.367067 -0.927778
52.066 27.2167 -117.867 0.0670559 0.369783 -0.926695
54.1695 27.164 -117.738 0.0639577 0.371785 -0.926113
56.332 27.1118 -117.611 0.0637474 0.373863 -0.925291
58.4976 27.0589 -117.482 0.0662704 0.37525 -0.924552
60.5384 27.0061 -117.353 0.0674151 0.379013 -0.922932
62.5698 26.9539 -117.226 0.0668836 0.38044 -0.922384
64.644 26.9007 -117.098 0.0676901 0.380377 -0.922351
66.7867 26.8427 -116.958 0.0733982 0.383472 -0.920631
68.903 26.7823 -116.812 0.0742077 0.38398 -0.920355
71.0606 26.721 -116.664 0.0725847 0.384249 -0.920372
73.1536 26.6618 -116.522 0.0738043 0.385272 -0.919847
75.265 26.6017 -116.378 0.0736787 0.385205 -0.919885
75.7506 26.5879 -116.345 0.0733803 0.385471 -0.919797
78.9623 23.3327 -117.454 0.0729451 0.385598 -0.919779
76.8595 23.3923 -117.596 0.0729215 0.38545 -0.919843
74.7627 23.4516 -117.738 0.0734863 0.385407 -0.919816
72.7193 23.5094 -117.876 0.07206 0.384362 -0.920366
70.6131 23.5679 -118.016 0.0724706 0.384297 -0.920361
68.5948 23.6246 -118.152 0.069967 0.381566 -0.92169
66.5431 23.6797 -118.285 0.0695942 0.380588 -0.922122
64.5067 23.7335 -118.414 0.0670021 0.380458 -0.922368
62.5068 23.7848 -118.538 0.0668144 0.380448 -0.922386
60.4785 23.8358 -118.661 0.0628005 0.377252 -0.923979
58.3258 23.8862 -118.784 0.0582329 0.376204 -0.924705
56.2256 23.9353 -118.903 0.0636235 0.374373 -0.925093
55.2333 23.9588 -118.961 0.0611848 0.373471 -0.925622
56.3011 20.7547 -120.185 0.0601066 0.374473 -0.925288
58.3267 20.7101 -120.077 0.0562963 0.37653 -0.924692
60.3263 20.6642 -119.966 0.0625314 0.376974 -0.92411
62.3343 20.6161 -119.849 0.06254 0.376973 -0.92411
64.4525 20.5642 -119.725 0.0655069 0.379565 -0.922843
66.5117 20.5102 -119.595 0.0694583 0.38086 -0.92202
68.586 20.456 -119.465 0.0657779 0.384618 -0.920729
70.6434 20.4028 -119.338 0.0699195 0.385202 -0.92018
72.7672 20.3439 -119.198 0.0723488 0.386272 -0.919543
74.9109 20.2838 -119.055 0.0720209 0.386539 -0.919457
76.9396 20.2265 -118.918 0.0730981 0.387383 -0.919016
78.9697 20.1689 -118.782 0.0727473 0.38745 -0.919016
81.1387 20.1081 -118.637 0.0718086 0.387033 -0.919265
81.8453 20.0883 -118.59 0.0719311 0.387082 -0.919235
81.3816 16.9394 -119.953 0.0723121 0.387387 -0.919077
79.372 16.9962 -120.087 0.0724625 0.387411 -0.919055
77.3053 17.0548 -120.226 0.0723677 0.38729 -0.919113
75.3 17.1106 -120.358 0.0712055 0.386408 -0.919575
73.2716 17.1672 -120.492 0.072122 0.386001 -0.919675
71.2177 17.2231 -120.625 0.068707 0.384762 -0.920455
69.2015 17.2761 -120.751 0.0656551 0.384946 -0.920601
67.1897 17.3273 -120.873 0.0650593 0.384609 -0.920784
65.1535 17.3764 -120.99 0.060108 0.382661 -0.921931
63.1298 17.424 -121.104 0.0621449 0.380586 -0.922655
61.0267 17.4743 -121.225 0.0621541 0.38059 -0.922653
58.9508 17.5223 -121.34 0.0562503 0.379624 -0.923429
56.8958 17.5672 -121.448 0.0584254 0.377821 -0.924033
55.8072 17.5921 -121.509 0.0608821 0.37758 -0.923973
53.3775 14.4665 -122.921 0.0526906 0.378999 -0.923896
55.5654 14.4224 -122.814 0.0523912 0.379464 -0.923722
57.7262 14.3779 -122.707 0.0537027 0.380401 -0.923261
59.7284 14.3355 -122.606 0.0601078 0.380185 -0.922955
61.7592 14.2875 -122.491 0.0603151 0.3824 -0.922026
63.8205 14.2407 -122.379 0.0586844 0.383528 -0.921663
65.9085 14.1916 -122.263 0.0612069 0.382635 -0.92187
68.0315 14.1409 -122.142 0.0620149 0.383075 -0.921633
70.1066 14.0884 -122.018 0.0676076 0.384901 -0.920478
72.1244 14.0344 -121.89 0.0682799 0.385088 -0.92035
74.2157 13.9789 -121.759 0.0696105 0.388287 -0.918906
76.2352 13.9233 -121.628 0.0706276 0.388687 -0.918659
78.2725 13.8669 -121.495 0.0714654 0.388757 -0.918565
79.2063 13.8407 -121.433 0.0720879 0.388609 -0.918578
76.9683 10.7441 -122.918 0.0705363 0.389051 -0.918512
74.9672 10.7993 -123.047 0.0693106 0.388432 -0.918867
72.955 10.8529 -123.173 0.0669347 0.388379 -0.919066
70.8732 10.9071 -123.3 0.0657798 0.388399 -0.919141
68.7472 10.9594 -123.423 0.0605054 0.387582 -0.919847
66.7329 11.0072 -123.536 0.0605082 0.387217 -0.920001
64.6977 11.0551 -123.649 0.0594386 0.386308 -0.920453
62.6718 11.1012 -123.758 0.058034 0.383333 -0.921785
60.476 11.1508 -123.876 0.057882 0.383338 -0.921793
58.3567 11.1953 -123.982 0.0528862 0.380737 -0.92317
56.2827 11.2381 -124.084 0.0534507 0.380231 -0.923346
54.1585 11.2815 -124.188 0.0524291 0.380454 -0.923312
51.9905 11.3228 -124.288 0.0467649 0.37912 -0.924165
49.9364 11.3611 -124.38 0.0507308 0.378153 -0.924352
49.6615 11.3665 -124.393 0.0514097 0.378133 -0.924323
45.5042 8.27736 -125.891 0.0499753 0.379681 -0.923767
47.5264 8.23758 -125.795 0.0518255 0.379523 -0.92373
49.5538 8.1976 -125.698 0.0510471 0.380218 -0.923487
51.6489 8.15862 -125.604 0.0472624 0.380924 -0.923397
53.7354 8.12072 -125.513 0.0482928 0.380719 -0.923429
55.8284 8.07937 -125.414 0.0520316 0.382132 -0.922642
57.9462 8.03664 -125.312 0.052334 0.382013 -0.922674
59.9592 7.99527 -125.214 0.0530362 0.381732 -0.92275
62.0216 7.95085 -125.109 0.0571048 0.383443 -0.921798
64.0294 7.90647 -125.004 0.0557007 0.389006 -0.91955
66.0301 7.86323 -124.903 0.0543782 0.391176 -0.918708
68.1487 7.81527 -124.791 0.059713 0.391878 -0.918077
70.3299 7.76241 -124.668 0.0614768 0.392375 -0.917749
72.3477 7.71178 -124.55 0.0673754 0.391964 -0.91751
74.3489 7.65823 -124.426 0.0669669 0.390381 -0.918215
74.5767 7.65221 -124.412 0.0669632 0.390391 -0.918211
50.925 49.5675 -109.084 0.0913054 0.365646 -0.926265
48.8036 49.6385 -109.265 0.0910937 0.364855 -0.926597
46.7146 49.7024 -109.429 0.0683291 0.36604 -0.928087
44.5705 49.7522 -109.558 0.0634693 0.366326 -0.928319
42.5475 49.799 -109.678 0.0655904 0.364092 -0.92905
40.4647 49.8478 -109.804 0.0622487 0.363046 -0.929689
38.3333 49.8866 -109.905 0.0395022 0.356424 -0.933489
36.2806 49.9152 -109.979 0.038734 0.356687 -0.933421
34.2298 49.9438 -110.053 0.0387447 0.356567 -0.933466
32.1538 49.9728 -110.129 0.0394507 0.357871 -0.932937
30.0519 50.0022 -110.206 0.0397227 0.354001 -0.934401
27.9872 50.0315 -110.282 0.0396933 0.353853 -0.934458
25.9037 50.0604 -110.358 0.0334991 0.355471 -0.934087
23.8738 50.0731 -110.391 0.00848584 0.357149 -0.934009
21.8565 50.0786 -110.405 0.00651609 0.358083 -0.933667
19.8463 50.0812 -110.411 0.00196161 0.357892 -0.933761
17.8042 50.0828 -110.415 0.0047471 0.355202 -0.934777
15.7375 50.088 -110.429 0.0132465 0.342023 -0.939598
13.5999 50.0989 -110.459 0.00744415 0.33383 -0.942604
11.5812 50.0958 -110.45 -0.00959975 0.331781 -0.943308
9.5782 50.0894 -110.432 -0.00960702 0.331762 -0.943314
8.34605 50.0855 -110.42 -0.00966847 0.331772 -0.94331
8.27262 53.3172 -109.29 0.000986775 0.326192 -0.945303
10.3242 53.3217 -109.302 -0.00966346 0.331774 -0.943309
12.4257 53.3254 -109.313 0.00458005 0.337102 -0.941457
14.5658 53.315 -109.284 0.0160597 0.339456 -0.940485
16.5682 53.304 -109.254 0.0160608 0.339459 -0.940484
18.6871 53.2924 -109.222 0.0160694 0.339454 -0.940485
20.7209 53.2815 -109.192 0.0129288 0.343431 -0.939089
22.8279 53.2756 -109.176 0.00503401 0.35412 -0.935186
24.8463 53.2717 -109.165 0.00747768 0.354376 -0.935073
26.9049 53.2503 -109.108 0.0397113 0.354197 -0.934327
28.9961 53.2209 -109.03 0.0398562 0.354213 -0.934315
31.1432 53.1903 -108.949 0.0406771 0.354672 -0.934105
33.2407 53.1602 -108.87 0.0398963 0.355336 -0.933887
35.31 53.1318 -108.794 0.0386753 0.355654 -0.933817
37.4521 53.0994 -108.709 0.0510008 0.362692 -0.930513
39.4571 53.0605 -108.606 0.0547413 0.364891 -0.92944
41.5413 53.0185 -108.496 0.0621123 0.3634 -0.92956
43.6123 52.9699 -108.369 0.0660668 0.361442 -0.930051
45.6441 52.9214 -108.242 0.0676783 0.362881 -0.929375
46.7321 52.8926 -108.167 0.0743982 0.374142 -0.924382
41.588 56.2114 -107.245 0.0560052 0.363155 -0.930044
39.5683 56.2503 -107.349 0.0548746 0.361768 -0.930652
37.5085 56.29 -107.455 0.0558519 0.361966 -0.930517
35.442 56.3299 -107.562 0.0531568 0.357456 -0.932416
33.4387 56.3611 -107.645 0.0406837 0.354701 -0.934094
31.4001 56.39 -107.723 0.0406949 0.35467 -0.934105
29.3915 56.4186 -107.8 0.0406679 0.354692 -0.934098
27.2754 56.4484 -107.88 0.0399472 0.35441 -0.934236
25.2472 56.4735 -107.948 0.0188438 0.354203 -0.934979
23.1688 56.4791 -107.964 0.0125557 0.348955 -0.937055
21.1152 56.4941 -108.005 0.023989 0.345812 -0.937997
19.1032 56.5101 -108.049 0.0217072 0.343003 -0.939083
17.0584 56.5224 -108.084 0.016057 0.339454 -0.940486
14.9268 56.5339 -108.116 0.0160789 0.339445 -0.940489
12.9259 56.5445 -108.146 0.0160674 0.339453 -0.940486
10.9089 56.5531 -108.171 0.00762863 0.331088 -0.943569
8.83089 56.5539 -108.174 0.00180335 0.325624 -0.945498
8.34384 56.5541 -108.175 0.00180847 0.325635 -0.945494
8.42768 59.7884 -107.051 0.00437444 0.330423 -0.943823
10.5009 59.7857 -107.042 0.0045756 0.330571 -0.94377
12.6432 59.7708 -106.999 0.0279613 0.330523 -0.943384
14.647 59.7568 -106.958 0.0161842 0.339027 -0.940637
16.7408 59.7456 -106.926 0.0176196 0.33865 -0.940747
18.7644 59.7294 -106.881 0.0270024 0.33813 -0.940712
20.8058 59.7111 -106.829 0.0272865 0.340253 -0.939938
22.8528 59.6938 -106.781 0.0241228 0.345161 -0.938233
24.9186 59.6789 -106.74 0.0188152 0.350507 -0.936371
27.0076 59.6552 -106.675 0.0406315 0.354611 -0.934131
29.0491 59.6266 -106.597 0.0406223 0.354574 -0.934145
31.0792 59.5981 -106.519 0.0406037 0.354549 -0.934155
33.2174 59.5681 -106.438 0.0406164 0.35455 -0.934155
35.4164 59.5338 -106.344 0.0519744 0.352734 -0.934279
36.5846 59.5113 -106.283 0.0556734 0.354713 -0.933316
30.9278 62.8021 -105.306 0.0371149 0.363151 -0.930991
28.9098 62.8274 -105.375 0.0358005 0.369924 -0.928372
26.7506 62.8562 -105.455 0.0413431 0.3621 -0.931222
24.6653 62.8875 -105.54 0.0449126 0.36024 -0.931778
22.566 62.9173 -105.622 0.0350636 0.34549 -0.937767
20.4287 62.9383 -105.681 0.0271194 0.337703 -0.940862
18.3998 62.9566 -105.733 0.0260481 0.337796 -0.940859
16.3227 62.9702 -105.772 0.0192948 0.337592 -0.941095
14.3179 62.988 -105.824 0.0318598 0.327973 -0.94415
12.1053 63.0104 -105.889 0.0283164 0.329196 -0.943837
9.95636 63.0185 -105.913 0.00453799 0.330333 -0.943854
8.34249 63.0228 -105.928 0.0229136 0.318691 -0.947582
8.34745 66.2772 -104.86 0.038763 0.308441 -0.950453
10.4693 66.2536 -104.788 0.0260459 0.31292 -0.949422
12.5354 66.2416 -104.752 0.0268864 0.329034 -0.943935
14.5718 66.2211 -104.692 0.0318491 0.327977 -0.944149
16.6136 66.1995 -104.629 0.0328979 0.33255 -0.942512
18.6194 66.1751 -104.56 0.0443042 0.349222 -0.935992
20.7109 66.1435 -104.471 0.0451147 0.360473 -0.931678
22.7365 66.1123 -104.386 0.045099 0.360481 -0.931676
24.7978 66.0806 -104.298 0.0444926 0.360362 -0.931751
25.0322 66.077 -104.288 0.0443185 0.3604 -0.931745
11.2668 69.4982 -103.689 0.0439304 0.314968 -0.948085
9.11699 69.5264 -103.774 0.0391124 0.308616 -0.950382
8.3878 69.5352 -103.801 0.0389532 0.308529 -0.950417
-13.2296 8.84841 -134.675 0.646782 0.263533 -0.715698
-14.8082 9.34778 -135.936 0.6682 0.261597 -0.696473
-16.2291 9.91253 -137.334 0.746118 0.257168 -0.614144
-17.5648 10.5019 -138.742 0.768928 0.260546 -0.583836
-18.9108 11.1395 -140.243 0.771138 0.259072 -0.581574
-19.5917 11.4709 -141.025 0.794548 0.254796 -0.551155
-19.65 11.5016 -141.096 0.798175 0.254125 -0.546202
