-19.1973 14.4422 -143.7 0.73804 0.280012 -0.613914
-18.6291 12.4961 -143.945 0.711033 0.286253 -0.642237
-17.9959 10.4947 -144.127 0.71615 0.277677 -0.640332
-17.3308 8.45692 -144.237 0.739999 0.256971 -0.621585
-16.6937 6.50608 -144.294 0.74725 0.265407 -0.609243
-15.7635 5.30632 -143.675 0.747939 0.264621 -0.608738
-14.4291 5.34057 -142.042 0.728001 0.199581 -0.65565
-12.972 5.40658 -140.537 0.698112 0.150845 -0.699918
-11.4897 5.32231 -139.189 0.591024 0.186017 -0.784913
-9.81623 5.26782 -138.044 0.543203 0.251908 -0.80092
-8.04989 5.2769 -137.015 0.443006 0.291529 -0.847795
-6.28475 5.25774 -136.055 0.470607 0.263055 -0.842218
-4.4747 5.27756 -135.144 0.320109 0.271554 -0.907319
-2.46873 5.25738 -134.599 0.246167 0.256521 -0.934665
-0.332762 5.1102 -134.073 0.247616 0.255047 -0.934686
1.62857 5.07339 -133.662 0.134715 0.390839 -0.910547
3.66794 5.05444 -133.306 0.183075 0.417849 -0.88988
5.6363 5.03851 -132.917 0.150805 0.406095 -0.901302
7.77413 5.05108 -132.691 0.0839379 0.411473 -0.907548
9.86428 5.07582 -132.483 0.0853534 0.414417 -0.906076
12.0117 5.02555 -132.317 0.0693231 0.416685 -0.906403
14.0508 5.01551 -132.162 0.0724423 0.418663 -0.905248
16.0727 5.0163 -132.001 0.0712877 0.417681 -0.905793
18.1612 5.02568 -131.831 0.0701694 0.404723 -0.911743
20.1742 5.01941 -131.678 0.0699485 0.402733 -0.912641
22.1755 5.07118 -131.513 0.0622185 0.401774 -0.913623
24.2303 5.02566 -131.393 0.0606356 0.398635 -0.915103
26.4031 5.03774 -131.248 0.0606746 0.395189 -0.916594
28.5616 5.06092 -131.084 0.0645498 0.391792 -0.917786
30.7004 5.09022 -130.926 0.0621599 0.390504 -0.9185
32.8294 5.09941 -130.766 0.0690735 0.387168 -0.919418
34.8513 5.07263 -130.632 0.0654914 0.384981 -0.920598
36.9181 5.01306 -130.507 0.0624254 0.384329 -0.921083
38.9491 5.04245 -130.367 0.0585084 0.381602 -0.922473
40.9793 5.14314 -130.2 0.0560386 0.381661 -0.922602
43.0092 5.26803 -130.025 0.0576062 0.380635 -0.922929
45.0462 5.24177 -129.901 0.0618267 0.377591 -0.923906
47.0515 5.15427 -129.818 0.0504374 0.376046 -0.925227
49.2696 5.11905 -129.712 0.0488572 0.375956 -0.925348
51.2696 5.10139 -129.617 0.045939 0.381755 -0.923121
53.4151 5.11341 -129.504 0.046734 0.383103 -0.922523
55.5752 5.06268 -129.415 0.0473312 0.38367 -0.922257
57.7771 5.08627 -129.294 0.0447452 0.388529 -0.92035
59.781 5.0547 -129.211 0.0445983 0.389876 -0.919787
61.8042 5.07031 -129.105 0.0457266 0.390158 -0.919612
63.8755 5.06431 -128.998 0.0504587 0.390297 -0.919305
65.8848 5.01281 -128.911 0.0489311 0.394461 -0.917609
67.9269 5.01875 -128.787 0.0599295 0.399855 -0.914617
70.0637 5.02783 -128.642 0.0609341 0.397595 -0.915536
71.7293 5.79244 -128.201 0.0608634 0.394957 -0.916681
72.997 7.28247 -127.47 0.0695284 0.393727 -0.916594
74.304 8.7983 -126.718 0.0713532 0.391365 -0.917465
75.4346 10.2922 -125.996 0.0698478 0.390024 -0.918152
76.5572 11.9169 -125.219 0.073378 0.389811 -0.917967
77.7066 13.4563 -124.472 0.0738027 0.388904 -0.918317
78.8266 14.949 -123.753 0.0728907 0.388045 -0.918753
79.9939 16.5482 -122.984 0.0735625 0.387982 -0.918727
81.0504 18.1157 -122.239 0.0738194 0.387079 -0.919087
81.7408 19.8513 -121.453 0.0735692 0.386843 -0.919206
80.273 21.3726 -120.93 0.0737623 0.386868 -0.91918
78.893 22.8001 -120.441 0.0739742 0.386172 -0.919456
77.4579 24.2812 -119.934 0.0738362 0.385959 -0.919556
76.0212 25.751 -119.432 0.073506 0.386265 -0.919454
74.6176 27.1935 -118.939 0.0741499 0.386198 -0.919431
73.1174 28.6151 -118.465 0.0762669 0.385527 -0.919539
71.571 30.0822 -117.982 0.077678 0.384458 -0.919868
70.0023 31.4557 -117.54 0.0777075 0.384327 -0.919921
68.5114 32.7956 -117.111 0.0785032 0.379553 -0.921833
66.9821 34.1388 -116.689 0.0787154 0.379484 -0.921844
65.5109 35.4681 -116.267 0.0787716 0.379449 -0.921853
64.0665 36.7876 -115.848 0.0788366 0.379427 -0.921857
62.565 38.131 -115.423 0.0783464 0.381088 -0.921213
61.0881 39.4652 -114.992 0.0784406 0.384971 -0.919589
59.5138 40.751 -114.593 0.0862068 0.376409 -0.922428
57.9831 42.0815 -114.212 0.0955511 0.371517 -0.923496
56.4911 43.4426 -113.818 0.0915579 0.370936 -0.924134
55.0178 44.7601 -113.43 0.0834696 0.371131 -0.92482
53.4727 46.0276 -113.072 0.0872838 0.355341 -0.930653
51.7127 47.1235 -112.82 0.089167 0.355343 -0.930473
49.9607 48.2105 -112.571 0.0888339 0.35528 -0.930528
48.2084 49.3197 -112.314 0.0882745 0.35542 -0.930529
46.4198 50.43 -112.06 0.0855131 0.353384 -0.931562
44.6818 51.5242 -111.787 0.0581673 0.347712 -0.935795
42.9971 52.582 -111.507 0.0598265 0.34175 -0.937885
41.2671 53.6245 -111.237 0.0581684 0.342547 -0.937698
39.4421 54.7255 -110.914 0.0325658 0.346744 -0.937394
37.706 55.8488 -110.564 0.0329756 0.33863 -0.940342
36.0138 56.9852 -110.17 0.00806231 0.366565 -0.930358
34.1857 58.1177 -109.771 0.0381789 0.370834 -0.927914
32.5122 59.261 -109.384 0.0385396 0.370908 -0.92787
30.8206 60.274 -109.049 0.0385446 0.370915 -0.927867
29.0702 61.2455 -108.733 0.0385784 0.370653 -0.92797
27.1707 62.2206 -108.429 0.0423113 0.362765 -0.930919
25.3321 63.2135 -108.14 0.070452 0.357307 -0.931325
23.5219 64.0261 -107.974 0.0777092 0.346818 -0.934708
21.4516 64.4983 -107.907 0.0249085 0.317263 -0.94801
19.4497 64.8868 -107.829 0.0246735 0.317163 -0.94805
17.4495 65.2595 -107.756 0.0242754 0.317189 -0.948051
15.4754 65.7682 -107.619 0.00696651 0.320338 -0.947278
13.5666 66.3871 -107.425 0.0103846 0.321472 -0.946862
11.496 67.0091 -107.224 -0.00954387 0.326437 -0.94517
9.52874 67.3644 -107.07 -0.0113759 0.327005 -0.944952
7.41883 67.4532 -107.036 0.0159203 0.317531 -0.948114
5.57694 67.1895 -107.168 0.0344049 0.311757 -0.949538
5.53512 65.2581 -107.808 0.0213214 0.315356 -0.948734
5.48661 63.1947 -108.497 0.0189742 0.319273 -0.947473
5.5083 61.1619 -109.186 0.00604708 0.325107 -0.945658
5.48247 59.1491 -109.876 -0.0187138 0.326007 -0.945181
5.47691 57.1637 -110.562 -0.0192945 0.330816 -0.943488
5.47171 55.1868 -111.245 -0.0223625 0.324815 -0.945513
5.4513 53.2188 -111.924 -0.0196857 0.329363 -0.943998
5.45116 51.2848 -112.593 -0.0329563 0.325571 -0.944942
5.39915 49.3681 -113.252 -0.0328013 0.330053 -0.943392
5.38002 47.2905 -113.993 -0.0187375 0.337698 -0.941067
5.38297 45.3686 -114.683 -0.010882 0.338005 -0.941082
5.4047 43.4479 -115.371 -0.0100416 0.336654 -0.941575
5.46017 41.4944 -116.07 -0.0090945 0.33812 -0.941059
5.48971 39.3826 -116.836 -0.0200575 0.344102 -0.938718
6.08848 37.7103 -117.464 -0.0216686 0.344846 -0.938409
8.21524 37.1374 -117.735 -0.0280309 0.360506 -0.932335
10.3197 36.605 -118.012 -0.0310799 0.363933 -0.930906
12.2901 36.1653 -118.249 -0.0309408 0.36389 -0.930928
14.2825 35.7974 -118.436 -0.00606315 0.362409 -0.931998
16.3866 35.5007 -118.562 -0.00483402 0.362709 -0.93189
18.362 35.1022 -118.728 -0.00541345 0.36377 -0.931473
20.3061 34.5818 -118.94 0.000538465 0.362921 -0.93182
22.1934 33.7526 -119.257 0.0025103 0.361752 -0.932271
24.0269 32.8741 -119.593 0.00174147 0.363364 -0.931644
25.8183 32.0196 -119.94 -0.00711068 0.384356 -0.923157
27.6672 31.1724 -120.311 -0.0085191 0.385321 -0.922743
29.5532 30.3479 -120.619 0.0509331 0.369308 -0.92791
31.5149 29.5693 -120.827 0.0416619 0.365577 -0.929848
33.4337 28.8418 -121.041 0.0343023 0.36612 -0.929935
35.2986 28.0759 -121.271 0.0390936 0.364836 -0.930251
37.1944 27.1192 -121.548 0.0490335 0.363894 -0.930149
39.0458 26.2067 -121.799 0.0545357 0.359401 -0.931588
40.8525 25.3003 -122.043 0.0546895 0.359486 -0.931546
42.4746 24.0956 -122.412 0.0540335 0.358139 -0.932103
43.6541 22.4671 -122.985 0.0467048 0.363825 -0.930296
44.1518 20.6451 -123.674 0.0467701 0.366397 -0.929282
43.9128 18.7875 -124.432 0.0471872 0.374596 -0.925986
42.9294 17.1287 -125.152 0.0437732 0.374994 -0.925992
41.4397 15.9082 -125.728 0.0512215 0.382842 -0.922393
39.7813 14.8496 -126.259 0.0511831 0.382124 -0.922693
38.0972 13.8073 -126.784 0.0512037 0.38212 -0.922693
36.3327 12.9066 -127.259 0.0559326 0.384108 -0.921592
34.5059 12.1353 -127.7 0.0655106 0.385994 -0.920172
32.6939 11.3566 -128.155 0.0642356 0.385736 -0.92037
30.9043 10.5583 -128.607 0.059112 0.385749 -0.920708
28.9413 9.75033 -129.069 0.0529928 0.388132 -0.920078
27.0948 9.07822 -129.461 0.0567456 0.395405 -0.916752
25.0694 8.48995 -129.838 0.0558369 0.396081 -0.916516
23.1574 7.95383 -130.189 0.0594325 0.398378 -0.915294
21.0994 7.43577 -130.546 0.0536698 0.40232 -0.913925
19.141 6.98465 -130.876 0.0675976 0.411111 -0.909075
17.1312 6.70085 -131.154 0.0671447 0.411207 -0.909066
15.1013 6.51646 -131.391 0.0700396 0.412836 -0.908108
12.9868 6.30294 -131.653 0.0710708 0.416272 -0.906458
10.9864 6.17073 -131.876 0.0809016 0.414619 -0.906388
8.87648 6.10106 -132.107 0.0854849 0.414374 -0.906083
6.80374 6.18216 -132.265 0.082959 0.412523 -0.90716
4.79955 6.42962 -132.423 0.180104 0.420081 -0.889432
2.8236 6.80471 -132.634 0.170697 0.44904 -0.877055
0.889118 7.4731 -132.701 0.214594 0.478383 -0.851528
-1.00013 8.34744 -132.762 0.263594 0.497621 -0.826372
-2.90157 9.08638 -132.924 0.266937 0.499307 -0.82428
-4.59246 10.1569 -133.117 0.489453 0.37281 -0.788316
-6.03153 11.7561 -133.273 0.493389 0.365988 -0.789063
-7.19377 13.4213 -133.205 0.51098 0.381704 -0.770187
-8.44078 14.9407 -133.301 0.549343 0.380956 -0.743704
-10.1493 14.976 -134.551 0.551534 0.380497 -0.742315
-11.8743 15.0101 -135.807 0.542611 0.380484 -0.748869
-13.4715 14.9646 -137.12 0.658122 0.389573 -0.644289
-14.8149 14.9536 -138.616 0.691654 0.345908 -0.634005
-16.2318 14.9317 -140.17 0.691191 0.345465 -0.634751
-17.5948 14.8361 -141.707 0.691202 0.345444 -0.63475
-18.9525 14.6893 -143.285 0.717639 0.327233 -0.614746
-19.1938 14.5256 -143.658 0.736005 0.28911 -0.612064
-21.3474 14.1938 -146.621 0.823153 0.199228 -0.531356
-20.8177 12.1795 -146.76 0.762069 0.261203 -0.592473
-20.1823 10.1193 -146.923 0.740777 0.286732 -0.607482
-19.518 8.04826 -147.052 0.740565 0.270897 -0.614962
-18.873 6.099 -147.134 0.740568 0.270874 -0.614968
-18.2395 4.10241 -147.243 0.748045 0.263285 -0.609188
-17.6127 2.15565 -147.317 0.754227 0.259128 -0.603271
-16.4172 1.82715 -145.906 0.785095 0.210421 -0.582532
-15.195 1.82434 -144.222 0.794665 0.194239 -0.575134
-14.0104 1.82725 -142.585 0.794069 0.194206 -0.575966
-12.7222 1.88312 -140.972 0.697301 0.124799 -0.705811
-11.0415 1.80685 -139.765 0.486543 0.21498 -0.846723
-9.29101 1.81009 -138.784 0.47188 0.237835 -0.848978
-7.52987 1.82679 -137.794 0.476524 0.243648 -0.844725
-5.70153 1.80577 -136.767 0.47767 0.25383 -0.841072
-3.82256 1.82283 -135.898 0.263719 0.2551 -0.930256
-1.82315 1.75236 -135.495 0.0996703 0.392038 -0.914534
0.186609 1.71912 -135.323 0.0829822 0.414953 -0.906051
2.2142 1.76411 -135.065 0.148301 0.406003 -0.901707
4.19651 1.72604 -134.728 0.162732 0.404352 -0.90001
6.16226 1.73705 -134.36 0.152829 0.415506 -0.896659
8.21171 1.7457 -134.136 0.0707333 0.405329 -0.91143
10.2681 1.77092 -133.955 0.0829315 0.412781 -0.907047
12.4642 1.74288 -133.79 0.0659721 0.416058 -0.906942
14.5021 1.74168 -133.639 0.071271 0.418012 -0.905641
16.6075 1.73466 -133.46 0.0895339 0.411856 -0.90684
18.6773 1.71984 -133.263 0.0872529 0.411266 -0.907328
20.7193 1.72903 -133.088 0.0669168 0.401843 -0.913259
22.8459 1.73834 -132.934 0.0636027 0.402607 -0.913161
24.914 1.72906 -132.791 0.0700723 0.399518 -0.914042
26.9196 1.73199 -132.628 0.0737165 0.397767 -0.91452
28.9136 1.75216 -132.47 0.0650451 0.390922 -0.918123
30.9171 1.7673 -132.317 0.0705931 0.387447 -0.919185
32.9633 1.76662 -132.158 0.0713753 0.387067 -0.919285
34.9958 1.73512 -132.017 0.0680121 0.384678 -0.920542
37.0713 1.70619 -131.873 0.0672766 0.382457 -0.92152
39.1538 1.75696 -131.713 0.0585924 0.381843 -0.922368
41.212 1.782 -131.574 0.0598221 0.378911 -0.923497
43.3015 1.82672 -131.415 0.0623743 0.377681 -0.923833
45.3632 1.81382 -131.281 0.0624143 0.377658 -0.923839
47.4246 1.76215 -131.177 0.0488376 0.376121 -0.925282
49.449 1.77009 -131.076 0.0429708 0.380157 -0.923923
51.5422 1.77326 -130.975 0.0455142 0.380468 -0.923673
53.5588 1.78336 -130.872 0.0448583 0.381142 -0.923427
55.606 1.73834 -130.808 0.031842 0.383486 -0.922998
57.6708 1.75272 -130.713 0.0438952 0.390276 -0.919651
59.7727 1.74224 -130.617 0.04258 0.391588 -0.919155
61.7779 1.74532 -130.524 0.041577 0.393725 -0.918288
63.7839 1.7598 -130.425 0.0466245 0.395302 -0.917367
65.8826 1.72212 -130.331 0.0498469 0.395473 -0.917124
67.9114 1.7427 -130.212 0.0501314 0.395687 -0.917016
69.9167 1.73531 -130.097 0.0586376 0.399934 -0.914666
72.001 1.77071 -129.932 0.0726659 0.397443 -0.914744
73.6321 2.66217 -129.415 0.0723285 0.396413 -0.915219
74.9487 4.16811 -128.659 0.0713372 0.396137 -0.915416
76.236 5.68745 -127.902 0.07427 0.395967 -0.915256
77.565 7.26567 -127.121 0.0725584 0.391076 -0.917494
78.7478 8.83979 -126.352 0.0749707 0.392161 -0.916837
79.8864 10.352 -125.614 0.0742689 0.390163 -0.917745
81.0393 11.9352 -124.85 0.0729909 0.38866 -0.918485
82.1391 13.4416 -124.125 0.0735161 0.388245 -0.918619
83.2886 14.9879 -123.38 0.0735812 0.388113 -0.91867
84.2975 16.5857 -122.626 0.0716323 0.388294 -0.918747
85.3629 18.2157 -121.85 0.0739028 0.388871 -0.918323
86.3451 19.8289 -121.089 0.075026 0.38695 -0.919043
85.0577 21.3188 -120.567 0.0748204 0.386728 -0.919154
83.7076 22.7619 -120.07 0.074751 0.386359 -0.919314
82.322 24.1846 -119.585 0.074143 0.386239 -0.919414
80.9206 25.5831 -119.11 0.0740073 0.386108 -0.91948
79.4916 27.0862 -118.594 0.0737377 0.38592 -0.919581
78.0491 28.5946 -118.076 0.0733379 0.38622 -0.919487
76.6516 29.9688 -117.61 0.0733055 0.38625 -0.919477
75.1654 31.3908 -117.133 0.0757846 0.385796 -0.919466
73.6332 32.7309 -116.702 0.0780252 0.382315 -0.920732
72.1898 34.0655 -116.274 0.0787267 0.37951 -0.921832
70.682 35.4098 -115.85 0.0787266 0.379484 -0.921843
69.1339 36.7877 -115.415 0.0787222 0.379497 -0.921838
67.6481 38.1239 -114.991 0.0787541 0.38028 -0.921512
66.1538 39.4792 -114.554 0.078263 0.384983 -0.919599
64.6417 40.8638 -114.104 0.0782677 0.385005 -0.91959
63.1501 42.2352 -113.656 0.0783729 0.384988 -0.919588
61.6066 43.5634 -113.242 0.0898788 0.376311 -0.922124
60.0688 44.9221 -112.853 0.0960485 0.372771 -0.922939
58.491 46.2924 -112.459 0.0963135 0.377581 -0.920954
56.9794 47.593 -112.084 0.0976005 0.377472 -0.920863
55.4018 48.8122 -111.756 0.101159 0.375838 -0.921147
53.619 49.9071 -111.507 0.100879 0.37404 -0.921909
51.8691 51.0318 -111.251 0.0969918 0.355639 -0.929577
50.1368 52.1015 -111.026 0.097 0.3521 -0.930923
48.4323 53.1634 -110.802 0.0970292 0.351843 -0.931017
46.5977 54.2742 -110.573 0.0970502 0.351829 -0.93102
44.9062 55.4051 -110.322 0.0965 0.351869 -0.931062
43.0755 56.5332 -110.07 0.0688196 0.34272 -0.936913
41.3273 57.6087 -109.795 0.0567101 0.336147 -0.940101
39.6187 58.7118 -109.476 0.0216161 0.345847 -0.938042
37.8956 59.8354 -109.056 -0.00227394 0.36463 -0.93115
36.2034 60.909 -108.631 -0.00191648 0.36474 -0.931107
34.5574 61.9757 -108.22 0.0246509 0.366993 -0.929897
32.8028 63.0737 -107.848 0.0385901 0.37048 -0.928039
30.9907 64.0307 -107.551 0.0427177 0.361181 -0.931517
29.1047 65.0286 -107.253 0.0430943 0.360365 -0.931816
27.3448 65.9695 -106.97 0.0431018 0.360366 -0.931815
25.4218 66.9783 -106.682 0.0677345 0.358356 -0.931109
23.3488 67.5322 -106.641 0.0796979 0.358336 -0.930185
21.2942 67.9837 -106.643 0.0792859 0.358021 -0.930341
19.314 68.3682 -106.653 0.0585902 0.340958 -0.93825
17.3272 68.7437 -106.592 0.0192084 0.320878 -0.946926
15.3463 69.3759 -106.398 0.0064072 0.320585 -0.947198
13.3558 70.0315 -106.191 0.00788816 0.321475 -0.946885
11.3342 70.5401 -106.006 -0.0200251 0.326276 -0.945062
9.18609 70.8112 -105.881 0.00246075 0.320005 -0.947377
7.00174 70.8733 -105.941 0.0476109 0.296977 -0.953696
4.89604 70.9281 -106.03 0.0482778 0.29602 -0.953961
2.81986 70.9297 -106.135 0.0482727 0.296023 -0.95396
1.92334 69.6923 -106.564 0.0482828 0.296011 -0.953963
1.91799 67.7302 -107.173 0.0482896 0.296014 -0.953962
1.91289 65.7833 -107.778 0.048275 0.296019 -0.953961
1.89756 63.8069 -108.394 0.040697 0.298222 -0.953629
1.90982 61.8776 -109.018 0.0232932 0.314781 -0.948877
1.87861 59.8868 -109.658 0.0229341 0.29515 -0.955176
1.8678 57.9498 -110.257 0.0229456 0.295234 -0.95515
1.87701 56.0007 -110.863 0.00423382 0.289138 -0.957278
1.88556 54.0261 -111.514 -0.0372252 0.322552 -0.94582
1.88009 52.0897 -112.18 -0.0364387 0.326338 -0.94455
1.85628 50.1098 -112.876 -0.0249109 0.339864 -0.940143
1.84747 48.1541 -113.587 -0.025111 0.341989 -0.939368
1.86694 46.2281 -114.288 -0.0251596 0.341997 -0.939364
1.85085 44.3194 -114.983 -0.0251136 0.341989 -0.939368
1.85228 42.4269 -115.672 -0.0251218 0.342002 -0.939363
1.8677 40.4101 -116.406 -0.0241587 0.342062 -0.939367
1.9007 38.4687 -117.111 -0.0166753 0.338873 -0.940683
1.89056 36.4781 -117.828 -0.0162008 0.339669 -0.940405
2.83675 35.0751 -118.364 -0.0244918 0.357044 -0.933766
4.89597 34.5325 -118.641 -0.0316224 0.364609 -0.930624
6.89325 34.0081 -118.914 -0.0354404 0.369812 -0.928431
8.8843 33.4722 -119.205 -0.0362626 0.394797 -0.918053
11.0358 32.9765 -119.49 -0.0250807 0.408432 -0.912418
13.1593 32.6042 -119.713 -0.0108474 0.415241 -0.909615
15.2151 32.2531 -119.833 0.0175448 0.383634 -0.923319
17.19 31.8796 -119.98 -0.00543948 0.363933 -0.931409
19.1935 31.3215 -120.208 -0.00113875 0.363619 -0.931546
20.9858 30.4908 -120.535 -0.00286404 0.378965 -0.925406
22.8547 29.6427 -120.903 -0.00886125 0.385157 -0.922808
24.669 28.7973 -121.274 -0.0088504 0.385164 -0.922806
26.5409 27.9582 -121.642 -0.0079287 0.384831 -0.922953
28.3707 27.1317 -121.968 0.0386094 0.373094 -0.92699
30.2543 26.4132 -122.151 0.0525235 0.370406 -0.927384
32.1369 25.7136 -122.327 0.0408198 0.368648 -0.928671
34.0547 24.912 -122.565 0.0358331 0.365698 -0.930044
35.818 23.9802 -122.846 0.0511413 0.362339 -0.930642
37.6954 23.0796 -123.081 0.0553356 0.349718 -0.93522
39.5159 22.1564 -123.311 0.0576168 0.345691 -0.936578
40.6284 20.6295 -123.839 0.0388681 0.368049 -0.928994
39.8846 18.9935 -124.534 0.045884 0.382078 -0.922988
38.1181 17.8955 -125.087 0.0515328 0.383492 -0.922105
36.4246 16.8319 -125.624 0.0514278 0.382587 -0.922487
34.681 15.8733 -126.122 0.0564266 0.386092 -0.920733
32.8465 15.1029 -126.575 0.0649321 0.385656 -0.920355
30.9933 14.3138 -127.022 0.0487904 0.390286 -0.919399
29.0994 13.4915 -127.465 0.0426324 0.393565 -0.918308
27.2063 12.6541 -127.912 0.0448364 0.393577 -0.918197
25.154 12.0073 -128.321 0.0630154 0.397984 -0.915225
23.2059 11.5019 -128.657 0.0525189 0.39173 -0.91858
21.2689 10.9599 -128.988 0.0444818 0.396888 -0.916788
19.2565 10.3939 -129.34 0.0492735 0.4042 -0.913342
17.257 10.0619 -129.624 0.0668289 0.41121 -0.909087
15.2667 9.85978 -129.862 0.0678946 0.411862 -0.908713
13.2331 9.68059 -130.093 0.0587683 0.418779 -0.906185
11.2488 9.47735 -130.29 0.0440498 0.426901 -0.903223
9.18411 9.33462 -130.513 0.0872446 0.4438 -0.891869
7.18893 9.45072 -130.64 0.0749489 0.455568 -0.88704
5.11364 9.6137 -130.742 0.0979978 0.46759 -0.878469
3.13703 10.0096 -130.882 0.209055 0.476719 -0.853806
1.22705 10.8212 -130.931 0.156392 0.447765 -0.880368
-0.763782 11.5332 -130.825 0.156836 0.467309 -0.869257
-2.73551 12.3302 -130.995 0.386583 0.440687 -0.810154
-4.1217 13.9184 -131.057 0.486472 0.382968 -0.78529
-5.30138 15.5794 -130.975 0.4861 0.38398 -0.785026
-6.49483 17.2587 -130.895 0.477823 0.374712 -0.794529
-8.02589 18.2359 -131.365 0.492456 0.385017 -0.780544
-9.77609 18.299 -132.565 0.532969 0.39949 -0.745882
-11.5583 18.2697 -133.812 0.511824 0.415853 -0.751733
-13.2148 18.2689 -134.95 0.539176 0.418237 -0.731004
-14.646 18.2606 -136.423 0.712909 0.374558 -0.592847
-15.9335 18.262 -137.978 0.712792 0.369648 -0.59606
-17.2776 18.2525 -139.502 0.691188 0.34546 -0.634757
-18.6466 18.1842 -141.181 0.771128 0.26578 -0.578551
-19.8621 18.131 -142.866 0.771616 0.262322 -0.579449
-20.957 18.0704 -144.591 0.888447 0.128496 -0.440625
-21.845 18.0023 -146.402 0.888439 0.128496 -0.440641
-21.6326 15.961 -146.569 0.888442 0.128501 -0.440633
-21.3884 14.3725 -146.612 0.829816 0.20672 -0.518246
-17.0196 11.3176 -142.707 0.7042 0.282165 -0.651525
-15.6063 10.7684 -141.39 0.727923 0.242687 -0.641273
-14.2324 10.2135 -140.023 0.728395 0.236633 -0.642997
-12.6802 9.66236 -138.643 0.652776 0.276391 -0.70533
-10.9412 9.22018 -137.513 0.533238 0.277416 -0.799186
-9.13891 8.80352 -136.448 0.538234 0.28671 -0.792529
-7.31552 8.41001 -135.449 0.445874 0.333392 -0.83069
-5.34464 8.04268 -134.548 0.460326 0.348047 -0.816678
-3.79492 7.80296 -133.981 0.28054 0.488129 -0.826455
-8.18215 12.3847 -134.386 0.551777 0.338894 -0.762032
-9.91532 12.9156 -135.412 0.556273 0.352585 -0.752492
-11.2163 13.3122 -136.176 0.559613 0.351277 -0.750624
10.5004 38.3048 -117.355 -0.0298418 0.360318 -0.932352
12.6527 38.328 -117.416 -0.0293 0.363315 -0.931205
14.7699 38.3401 -117.448 -0.00483146 0.362714 -0.931888
16.7787 38.3431 -117.457 -0.00461669 0.363301 -0.93166
18.7837 38.3459 -117.466 -0.00411091 0.363912 -0.931424
20.8791 38.3486 -117.474 -0.00406042 0.363925 -0.931419
22.9264 38.3498 -117.478 0.00124574 0.360064 -0.932927
24.9365 38.3482 -117.475 0.00184191 0.359316 -0.933214
26.9783 38.3463 -117.472 0.00184226 0.359297 -0.933221
28.983 38.3414 -117.46 0.0192554 0.364788 -0.930892
31.0451 38.3216 -117.41 0.0265471 0.365457 -0.930449
33.1633 38.298 -117.351 0.0338929 0.361711 -0.931674
35.2882 38.2697 -117.279 0.0379588 0.363337 -0.930884
37.3268 38.2413 -117.207 0.0379895 0.363354 -0.930876
39.4133 38.2121 -117.133 0.0394016 0.362491 -0.931154
41.4516 38.1776 -117.045 0.0581973 0.357565 -0.932073
43.5596 38.1301 -116.923 0.0620244 0.356049 -0.932407
45.6407 38.0842 -116.806 0.0601663 0.354599 -0.933081
47.6631 38.0383 -116.689 0.0672824 0.35789 -0.931337
49.7681 37.9824 -116.546 0.0736228 0.356934 -0.931224
51.8232 37.9268 -116.405 0.0736449 0.356945 -0.931218
53.8247 37.8725 -116.268 0.0734547 0.35708 -0.931181
55.8792 37.8161 -116.126 0.0760001 0.362345 -0.92894
58.0138 37.7534 -115.97 0.0784259 0.381997 -0.92083
60.2413 37.6876 -115.805 0.0788893 0.381524 -0.920986
60.5106 37.6797 -115.786 0.0787609 0.380929 -0.921244
64.181 34.3557 -116.839 0.0788857 0.379453 -0.921842
62.0234 34.4204 -116.998 0.07918 0.379355 -0.921857
59.9864 34.4795 -117.144 0.0741103 0.373865 -0.924517
57.9536 34.5346 -117.28 0.0717276 0.371968 -0.92547
55.8919 34.5849 -117.405 0.0658998 0.369141 -0.927034
53.7406 34.6397 -117.542 0.0693065 0.36821 -0.927156
51.6329 34.694 -117.678 0.0693525 0.368063 -0.927211
49.5416 34.7477 -117.813 0.0696105 0.367173 -0.927544
47.4057 34.7997 -117.945 0.0612378 0.359934 -0.930966
45.3505 34.8474 -118.065 0.0631771 0.358891 -0.931239
43.2969 34.8951 -118.186 0.0631652 0.358883 -0.931243
41.2191 34.9411 -118.303 0.0497582 0.358132 -0.932344
39.2044 34.9754 -118.389 0.0456653 0.357647 -0.93274
37.0369 35.0111 -118.479 0.0397986 0.360717 -0.931826
34.8338 35.0416 -118.554 0.0342125 0.361781 -0.931635
32.7412 35.0682 -118.62 0.0338933 0.361737 -0.931664
30.6903 35.094 -118.684 0.032882 0.362516 -0.931397
28.5729 35.107 -118.716 0.0023153 0.35984 -0.933011
26.4771 35.1093 -118.72 0.00191321 0.360936 -0.932589
24.4276 35.1116 -118.724 0.00241891 0.361433 -0.932395
23.4839 35.1128 -118.726 0.0024784 0.361449 -0.932388
30.4279 31.8696 -119.966 0.0430347 0.370289 -0.927919
32.4483 31.8409 -119.896 0.0343174 0.366114 -0.929937
34.5191 31.8138 -119.831 0.0343985 0.366136 -0.929925
36.7638 31.7797 -119.747 0.0479588 0.364217 -0.930078
38.7919 31.7429 -119.655 0.0490219 0.363052 -0.930478
40.8947 31.7051 -119.561 0.0468296 0.360039 -0.931761
42.9542 31.6633 -119.456 0.0598277 0.361859 -0.930311
45.0279 31.6174 -119.341 0.0591467 0.364487 -0.929328
47.0981 31.5721 -119.227 0.0591232 0.364545 -0.929307
49.1697 31.5244 -119.108 0.0644256 0.364329 -0.929039
51.2023 31.4754 -118.986 0.0666581 0.365512 -0.928417
53.2051 31.4245 -118.859 0.0693126 0.368199 -0.92716
55.3304 31.3713 -118.727 0.0622631 0.370795 -0.926625
57.4042 31.3231 -118.608 0.0621158 0.370457 -0.92677
59.4318 31.2703 -118.477 0.0721969 0.372005 -0.925419
61.4893 31.2141 -118.339 0.0721751 0.372029 -0.925411
63.5589 31.1578 -118.201 0.0716835 0.375104 -0.924207
65.5612 31.1015 -118.064 0.0772932 0.382927 -0.920539
67.5884 31.0415 -117.917 0.0777896 0.38426 -0.919942
67.8705 31.0331 -117.897 0.077759 0.384466 -0.919858
71.5186 27.7175 -118.975 0.077644 0.384445 -0.919877
69.418 27.7801 -119.126 0.0775006 0.384431 -0.919895
67.4121 27.8384 -119.267 0.0735879 0.380564 -0.921822
65.3238 27.8966 -119.408 0.0712302 0.380487 -0.922039
63.3184 27.949 -119.536 0.067086 0.379526 -0.922746
61.2656 28.0014 -119.663 0.0670899 0.379513 -0.922751
59.2444 28.0529 -119.789 0.0663649 0.376391 -0.924081
57.0613 28.1053 -119.918 0.0619956 0.371544 -0.926343
54.9405 28.1552 -120.041 0.0621854 0.372304 -0.926025
52.855 28.2031 -120.159 0.0623077 0.369831 -0.927007
50.7993 28.252 -120.28 0.0637651 0.368045 -0.927619
48.68 28.3025 -120.405 0.0638581 0.365274 -0.928707
46.6335 28.3484 -120.52 0.0579509 0.360744 -0.930863
44.6104 28.3911 -120.626 0.0560677 0.359635 -0.931407
42.5637 28.4337 -120.733 0.0556015 0.359639 -0.931434
40.423 28.4774 -120.841 0.0538361 0.359875 -0.931446
38.3762 28.5169 -120.939 0.0491862 0.3639 -0.930139
38.2844 28.5186 -120.943 0.0490123 0.363928 -0.930137
43.8945 25.1667 -121.915 0.0543982 0.36159 -0.930749
46.0535 25.1247 -121.811 0.0500596 0.366784 -0.928958
48.1361 25.085 -121.713 0.0525656 0.368282 -0.928227
50.1765 25.0397 -121.601 0.0616732 0.368162 -0.927714
52.2998 24.9899 -121.478 0.0620995 0.370064 -0.926928
54.2974 24.9451 -121.368 0.0583991 0.370856 -0.926853
56.333 24.8993 -121.256 0.0616079 0.372382 -0.926033
58.3811 24.8525 -121.142 0.054539 0.374097 -0.925784
60.4053 24.8077 -121.033 0.063055 0.376036 -0.924457
62.4678 24.7572 -120.91 0.066343 0.37812 -0.923376
64.4837 24.7056 -120.785 0.067202 0.379515 -0.922742
66.4795 24.652 -120.655 0.0727865 0.380399 -0.921954
68.484 24.5956 -120.519 0.073188 0.380255 -0.921981
70.5565 24.5376 -120.379 0.0723969 0.382068 -0.921294
72.5806 24.4811 -120.243 0.0741573 0.386308 -0.919384
74.616 24.4228 -120.103 0.0741855 0.386228 -0.919415
74.9257 24.4139 -120.082 0.0741768 0.386283 -0.919393
78.0445 21.1205 -121.216 0.0743471 0.386905 -0.919117
76.0465 21.1776 -121.352 0.0734722 0.38637 -0.919413
73.9841 21.2367 -121.493 0.0741581 0.386373 -0.919356
71.9855 21.2926 -121.627 0.0695536 0.38485 -0.920355
69.899 21.3483 -121.76 0.0687812 0.38493 -0.920379
67.8953 21.4015 -121.888 0.0695345 0.384342 -0.920569
65.8556 21.4566 -122.02 0.0694616 0.380201 -0.922292
63.8391 21.5067 -122.141 0.063153 0.376101 -0.924424
61.6722 21.5592 -122.268 0.0631677 0.376113 -0.924418
59.5045 21.6086 -122.387 0.0544413 0.374499 -0.925628
57.4069 21.6521 -122.493 0.0552034 0.374785 -0.925467
55.3725 21.6967 -122.601 0.0585918 0.371849 -0.926442
53.2395 21.7442 -122.717 0.0586281 0.371935 -0.926406
51.236 21.7881 -122.824 0.0564299 0.37101 -0.926913
49.1689 21.8335 -122.936 0.0583248 0.368077 -0.927964
47.0784 21.8753 -123.038 0.0495712 0.365771 -0.929384
45.765 21.8997 -123.098 0.0487926 0.365008 -0.929725
45.7614 18.6731 -124.381 0.0484816 0.373463 -0.926377
47.8561 18.6348 -124.288 0.0483727 0.372755 -0.926668
49.888 18.5937 -124.187 0.0552208 0.371613 -0.926744
51.9357 18.5502 -124.081 0.0569677 0.372121 -0.926435
54.0189 18.5042 -123.97 0.0560291 0.374148 -0.925675
56.1295 18.461 -123.865 0.0516377 0.377252 -0.92467
58.2355 18.4179 -123.761 0.0551105 0.377088 -0.924536
60.3166 18.3743 -123.656 0.053433 0.37839 -0.924103
62.392 18.3292 -123.548 0.0613785 0.382235 -0.922024
64.4093 18.2812 -123.432 0.0619451 0.382559 -0.921852
66.4809 18.2314 -123.313 0.0625328 0.382423 -0.921869
68.4956 18.18 -123.19 0.0687173 0.384988 -0.92036
70.5207 18.126 -123.061 0.0692025 0.384867 -0.920374
72.6745 18.068 -122.923 0.0693878 0.384858 -0.920364
74.6731 18.0129 -122.792 0.0735982 0.386391 -0.919394
76.6809 17.9555 -122.656 0.0731728 0.386444 -0.919406
78.637 17.8997 -122.524 0.0734633 0.386697 -0.919276
76.3776 14.7614 -124.026 0.0730314 0.388587 -0.918513
74.3701 14.8178 -124.159 0.0683755 0.389251 -0.91859
72.2527 14.874 -124.292 0.0680012 0.386723 -0.919685
70.249 14.9277 -124.419 0.0693301 0.385102 -0.920266
68.2311 14.9799 -124.543 0.0627578 0.382447 -0.921844
66.2168 15.0289 -124.659 0.0625325 0.382416 -0.921872
64.0852 15.0803 -124.782 0.060936 0.382214 -0.922062
62.0233 15.1249 -124.888 0.0534264 0.378558 -0.924034
59.8139 15.1705 -124.997 0.0534458 0.378822 -0.923925
57.7437 15.2134 -125.1 0.0528553 0.379774 -0.923568
55.6317 15.2555 -125.202 0.0516771 0.378779 -0.924043
53.5554 15.2966 -125.301 0.0516862 0.378276 -0.924249
51.4346 15.3388 -125.403 0.0545803 0.374008 -0.925818
49.3793 15.3813 -125.506 0.0541524 0.372854 -0.926308
47.2536 15.4247 -125.611 0.050731 0.373572 -0.926213
45.1312 15.4654 -125.71 0.0504468 0.375296 -0.925531
43.867 15.4897 -125.768 0.0502761 0.375631 -0.925405
39.1081 12.3745 -127.321 0.0511871 0.38213 -0.92269
41.1451 12.3337 -127.223 0.0540782 0.380354 -0.923258
43.1761 12.2909 -127.119 0.055178 0.379568 -0.923517
45.2658 12.2489 -127.018 0.0508364 0.3786 -0.924163
47.3939 12.2063 -126.914 0.0546834 0.377426 -0.924424
49.4794 12.1629 -126.809 0.0539676 0.377211 -0.924553
51.7048 12.1183 -126.701 0.049994 0.377967 -0.924468
53.7064 12.0806 -126.611 0.0491163 0.378126 -0.92445
55.841 12.0392 -126.511 0.0501908 0.379797 -0.923707
57.9536 11.9986 -126.414 0.0499497 0.380052 -0.923615
60.0621 11.9557 -126.311 0.0543815 0.381963 -0.922576
62.1117 11.9128 -126.209 0.0534654 0.3841 -0.921742
64.2176 11.8703 -126.109 0.0535049 0.385878 -0.920997
66.4172 11.8203 -125.99 0.062386 0.388404 -0.919375
68.4416 11.771 -125.874 0.062083 0.38821 -0.919478
70.5092 11.7201 -125.755 0.0639901 0.388143 -0.919375
72.5649 11.6669 -125.629 0.066947 0.390109 -0.918332
74.1264 11.625 -125.531 0.0699829 0.389232 -0.918477
71.6402 8.4933 -127.045 0.0635399 0.393376 -0.91718
69.5788 8.54526 -127.166 0.0625292 0.390892 -0.91831
67.5487 8.59439 -127.28 0.0611277 0.391043 -0.91834
65.547 8.63916 -127.385 0.053353 0.388987 -0.919697
63.4463 8.68351 -127.489 0.0529899 0.386589 -0.920729
61.2364 8.72687 -127.591 0.0495326 0.385277 -0.921471
59.225 8.76556 -127.683 0.0485418 0.385009 -0.921636
57.1802 8.80424 -127.775 0.04915 0.38335 -0.922294
55.0999 8.84377 -127.87 0.0487391 0.381746 -0.922981
53.0775 8.88101 -127.959 0.0472387 0.382195 -0.922874
50.9948 8.91885 -128.051 0.0488425 0.381389 -0.923123
48.8434 8.96197 -128.155 0.0543338 0.379836 -0.923457
46.7649 9.00495 -128.259 0.0543774 0.37843 -0.924031
44.6982 9.04727 -128.362 0.053648 0.378823 -0.923913
42.5837 9.09183 -128.47 0.0554586 0.380051 -0.923302
40.5787 9.13451 -128.574 0.0561354 0.381281 -0.922753
38.558 9.17822 -128.679 0.0572841 0.38225 -0.922282
36.5115 9.22282 -128.786 0.0560565 0.384323 -0.921495
34.4464 9.27215 -128.904 0.0652232 0.385336 -0.920468
32.3725 9.32437 -129.028 0.0626346 0.385459 -0.920597
56.5555 41.0233 -114.784 0.0886621 0.370882 -0.924438
54.4668 41.0883 -114.948 0.0819721 0.370305 -0.925286
52.4171 41.15 -115.105 0.08146 0.369951 -0.925473
50.3701 41.2101 -115.259 0.0783754 0.360136 -0.929602
48.3203 41.2658 -115.402 0.0735967 0.356967 -0.931213
46.2399 41.3182 -115.538 0.0624151 0.354934 -0.932805
44.1641 41.3633 -115.654 0.0597738 0.355404 -0.9328
42.1456 41.4063 -115.766 0.0587625 0.356242 -0.932544
40.0514 41.4451 -115.867 0.0382621 0.353897 -0.934501
37.9711 41.4732 -115.94 0.037282 0.353653 -0.934633
35.8858 41.5013 -116.012 0.0372254 0.35364 -0.934641
33.8349 41.5278 -116.081 0.0324322 0.356449 -0.933752
31.7196 41.5471 -116.131 0.0229002 0.358448 -0.933269
29.6601 41.5649 -116.177 0.0261395 0.364515 -0.93083
27.6215 41.5822 -116.221 0.0128302 0.364224 -0.931223
25.4523 41.5848 -116.227 -0.000609807 0.360188 -0.932879
23.4393 41.5828 -116.221 -0.00472231 0.362707 -0.931891
21.2728 41.5798 -116.213 -0.00428579 0.36003 -0.932931
19.258 41.579 -116.21 0.00282773 0.354756 -0.934955
17.2256 41.579 -116.21 0.000601195 0.350311 -0.936633
15.1277 41.5794 -116.21 -0.00046064 0.347975 -0.937504
13.018 41.575 -116.198 -0.0164693 0.344622 -0.938597
10.8769 41.5597 -116.157 -0.0211277 0.344909 -0.938398
8.76158 41.5441 -116.115 -0.021118 0.344903 -0.938401
7.34346 41.5337 -116.088 -0.0196157 0.343803 -0.938837
7.19137 44.7954 -114.908 -0.00992335 0.336664 -0.941573
9.28153 44.8041 -114.931 -0.0167402 0.341 -0.939914
11.3947 44.8189 -114.971 -0.0209428 0.345043 -0.938353
13.4237 44.8305 -115.002 -0.00754852 0.346924 -0.937863
15.4804 44.8319 -115.006 -0.00108476 0.347404 -0.937715
17.5275 44.8327 -115.008 -0.00100052 0.347241 -0.937775
19.648 44.8324 -115.007 0.00135874 0.345236 -0.938515
21.7582 44.8313 -115.005 0.00160547 0.345397 -0.938455
23.7718 44.83 -115.001 0.00282219 0.345802 -0.938303
25.8679 44.8276 -114.995 0.00383492 0.349791 -0.93682
27.8887 44.8175 -114.968 0.022999 0.355322 -0.934461
29.9353 44.8018 -114.927 0.0209121 0.356849 -0.933928
31.9821 44.7866 -114.887 0.0219597 0.356957 -0.933863
34.0709 44.766 -114.832 0.0308624 0.357786 -0.933294
36.1043 44.7437 -114.773 0.032081 0.35671 -0.933664
38.1386 44.718 -114.705 0.0372741 0.353671 -0.934627
40.2614 44.6882 -114.626 0.0488166 0.352903 -0.934386
42.3232 44.6468 -114.517 0.0586567 0.356358 -0.932507
44.3771 44.6041 -114.404 0.0572713 0.354133 -0.93344
46.4019 44.5603 -114.289 0.0746417 0.351963 -0.933033
48.4938 44.4966 -114.122 0.0865386 0.357063 -0.930063
50.6418 44.4312 -113.952 0.0851552 0.364041 -0.927482
52.7463 44.3679 -113.788 0.082885 0.369644 -0.925469
52.8083 44.3661 -113.783 0.0829033 0.369644 -0.925468
47.4412 47.7781 -112.973 0.0873457 0.35406 -0.931135
45.4336 47.8347 -113.124 0.0657561 0.350445 -0.934272
43.3362 47.875 -113.233 0.053948 0.35092 -0.93485
41.2289 47.9146 -113.34 0.0546805 0.351664 -0.934528
39.1942 47.9506 -113.438 0.0407377 0.356639 -0.933354
37.13 47.9739 -113.502 0.0310421 0.357615 -0.933353
35.0077 47.9965 -113.563 0.0309398 0.357561 -0.933377
32.8756 48.0193 -113.625 0.0305289 0.357729 -0.933326
30.7692 48.0369 -113.673 0.0223479 0.356185 -0.934148
28.7239 48.0543 -113.72 0.0249747 0.354075 -0.934884
26.6829 48.0719 -113.767 0.0233454 0.353624 -0.935096
24.6794 48.0779 -113.783 0.00425573 0.35072 -0.936471
22.6147 48.0809 -113.791 0.00431602 0.350708 -0.936475
20.5886 48.0837 -113.799 0.00248486 0.350426 -0.936587
18.4951 48.0841 -113.801 7.14766e-05 0.351036 -0.936362
16.4212 48.0839 -113.8 -0.000730841 0.349647 -0.936881
14.3588 48.0835 -113.8 -0.000854415 0.348542 -0.937293
12.3345 48.0807 -113.792 -0.0125476 0.34436 -0.938754
10.3129 48.0722 -113.769 -0.0102388 0.335136 -0.942114
8.26225 48.0652 -113.75 -0.0101526 0.335278 -0.942065
7.28059 48.0618 -113.741 -0.0101615 0.334061 -0.942497
7.3045 51.3368 -112.599 -0.00801523 0.328019 -0.944637
9.39624 51.3433 -112.617 -0.00928934 0.328223 -0.944555
11.423 51.3493 -112.634 -0.00691025 0.330413 -0.943811
13.4577 51.3467 -112.626 0.0117499 0.330747 -0.943646
15.4833 51.338 -112.601 0.012852 0.332361 -0.943065
17.5264 51.3321 -112.584 0.0042807 0.342275 -0.93959
19.7435 51.3319 -112.583 0.000203462 0.351013 -0.936371
21.765 51.3306 -112.579 0.00432874 0.35051 -0.936549
23.8053 51.3276 -112.57 0.00447692 0.350531 -0.936541
25.8486 51.3228 -112.557 0.0176075 0.349842 -0.936643
27.8516 51.3072 -112.514 0.0241879 0.350076 -0.936409
29.9204 51.2907 -112.469 0.0230123 0.348113 -0.93717
32.0823 51.2732 -112.421 0.0246716 0.347882 -0.937214
34.1307 51.2545 -112.369 0.0290914 0.345736 -0.937881
36.1476 51.2347 -112.314 0.0290227 0.345574 -0.937943
38.1842 51.2147 -112.257 0.0303796 0.346024 -0.937734
40.3598 51.1876 -112.181 0.0529808 0.343501 -0.937657
41.9298 51.1566 -112.094 0.0603389 0.34236 -0.937629
36.5811 54.4862 -111.101 0.0314735 0.346575 -0.937494
34.3742 54.5063 -111.159 0.0248381 0.347949 -0.937184
32.2077 54.524 -111.209 0.0245154 0.348326 -0.937053
30.0723 54.5417 -111.258 0.0243551 0.348335 -0.937053
27.9973 54.5584 -111.304 0.0230069 0.347562 -0.937375
25.9368 54.5741 -111.348 0.0181305 0.347486 -0.93751
23.7514 54.5789 -111.362 0.0025816 0.347271 -0.937761
21.5809 54.5819 -111.371 0.0121057 0.343646 -0.939021
19.5277 54.593 -111.402 0.0140862 0.330431 -0.943725
17.3662 54.6031 -111.431 0.0138556 0.329976 -0.943888
15.2964 54.6126 -111.458 0.01387 0.329981 -0.943886
13.0923 54.6207 -111.481 0.00738462 0.331586 -0.943396
10.8178 54.6236 -111.49 -0.00232119 0.328778 -0.944404
8.72123 54.6175 -111.473 -0.00804868 0.328073 -0.944618
7.32532 54.6141 -111.463 -0.0070278 0.327319 -0.944888
7.35132 57.8915 -110.328 -0.00703865 0.327297 -0.944895
9.36927 57.8963 -110.342 -0.00709123 0.327292 -0.944897
11.4931 57.8968 -110.342 0.00659424 0.331044 -0.943592
13.5344 57.8921 -110.329 0.00730644 0.331451 -0.943444
15.584 57.8854 -110.309 0.0137597 0.329864 -0.943928
17.7141 57.8746 -110.278 0.0192431 0.3353 -0.941915
19.7811 57.8597 -110.236 0.0223856 0.337002 -0.941238
21.8917 57.8438 -110.191 0.0223894 0.337005 -0.941237
23.9138 57.8319 -110.158 0.00511856 0.345455 -0.938421
25.9585 57.8263 -110.142 0.0190746 0.348905 -0.936964
27.9622 57.8106 -110.098 0.023949 0.348577 -0.936974
29.9764 57.7938 -110.052 0.0271675 0.347707 -0.93721
31.5889 57.7782 -110.008 0.0352069 0.358708 -0.932786
25.5325 61.0801 -108.941 0.0356594 0.352679 -0.935065
23.3967 61.1002 -108.996 0.0242235 0.325539 -0.945218
21.353 61.1171 -109.042 0.0247654 0.31984 -0.947148
19.3533 61.1333 -109.088 0.0244186 0.320055 -0.947084
17.1732 61.1508 -109.138 0.0246708 0.31717 -0.948048
15.1105 61.1651 -109.18 0.012958 0.320888 -0.947029
13.0973 61.1724 -109.201 0.0116301 0.321633 -0.946793
11.0772 61.1789 -109.221 -0.000403259 0.320808 -0.947144
9.04508 61.1734 -109.206 -0.00751788 0.326529 -0.945157
7.45892 61.1693 -109.195 -0.00743081 0.326626 -0.945124
7.41842 64.4475 -108.062 -0.00743386 0.326615 -0.945128
9.42789 64.4529 -108.076 -0.00833804 0.325944 -0.945352
11.5223 64.4613 -108.099 -0.00100988 0.322227 -0.946662
13.6105 64.4552 -108.08 0.0113655 0.321593 -0.94681
13.7154 64.4548 -108.079 0.0111518 0.321619 -0.946803
13.8313 64.4544 -108.077 0.0111376 0.321603 -0.946809
