-15.6666 14.1976 -143.916 0.715005 0.285335 -0.638237
-15.0565 12.2137 -144.086 0.732418 0.258056 -0.630014
-14.4862 10.2597 -144.173 0.737009 0.240556 -0.631626
-13.8925 8.32305 -144.223 0.733636 0.236769 -0.63696
-13.3038 6.36062 -144.28 0.753746 0.225603 -0.617217
-11.9491 5.86627 -143.064 0.666854 0.1835 -0.722242
-10.3831 5.80499 -141.755 0.548196 0.22498 -0.805462
-8.64438 5.79318 -140.625 0.521823 0.280226 -0.805567
-6.896 5.80988 -139.624 0.460981 0.297839 -0.835935
-5.05208 5.78997 -138.594 0.472441 0.282584 -0.834833
-3.22934 5.68339 -137.718 0.333358 0.29756 -0.894349
-1.14588 5.56808 -137.097 0.281179 0.298097 -0.912183
0.851545 5.45013 -136.64 0.144869 0.408801 -0.900843
2.89127 5.49602 -136.348 0.153559 0.409697 -0.899167
4.87687 5.51038 -135.981 0.175229 0.413777 -0.893355
6.96704 5.48632 -135.558 0.191106 0.427127 -0.883765
9.136 5.47219 -135.242 0.0860818 0.412346 -0.906951
11.1339 5.49458 -135.032 0.0877364 0.415275 -0.905455
13.2969 5.50558 -134.845 0.0745689 0.417138 -0.905779
15.3618 5.61033 -134.624 0.077206 0.416689 -0.905764
17.4066 5.58691 -134.441 0.0874921 0.409852 -0.907946
19.402 5.55328 -134.285 0.0737066 0.403331 -0.912081
21.4953 5.56277 -134.119 0.0655026 0.403441 -0.912658
23.6318 5.57821 -133.958 0.0660945 0.403272 -0.91269
25.7268 5.57713 -133.814 0.0636267 0.396787 -0.915702
27.7951 5.54099 -133.677 0.0688429 0.393835 -0.916599
29.8307 5.44964 -133.569 0.062808 0.393139 -0.917331
31.8776 5.54076 -133.39 0.0627448 0.393137 -0.917336
33.875 5.53699 -133.249 0.069939 0.388867 -0.918635
35.8708 5.54364 -133.106 0.0625493 0.383764 -0.92131
37.9976 5.55877 -132.955 0.0610481 0.383256 -0.921623
40.0776 5.58348 -132.811 0.0586308 0.382624 -0.922042
42.0759 5.5682 -132.689 0.0601413 0.381585 -0.922375
44.1805 5.61378 -132.534 0.0574332 0.379875 -0.923253
46.2865 5.5804 -132.419 0.0532914 0.379707 -0.923571
48.395 5.6205 -132.285 0.0510652 0.379187 -0.92391
50.4097 5.60079 -132.183 0.0474139 0.379501 -0.923976
52.4225 5.62569 -132.076 0.0438378 0.3825 -0.922915
54.4435 5.61292 -131.984 0.0449966 0.383181 -0.922576
56.529 5.59678 -131.888 0.0459739 0.38759 -0.920685
58.6377 5.52936 -131.816 0.0430214 0.392988 -0.918537
60.7377 5.58044 -131.696 0.0438794 0.393623 -0.918224
62.7673 5.56752 -131.603 0.0441853 0.392957 -0.918495
64.8844 5.58999 -131.488 0.0468539 0.392316 -0.918636
66.2836 6.87507 -130.863 0.051114 0.396157 -0.916759
67.6217 8.36935 -130.143 0.0516779 0.394767 -0.917327
68.9578 9.89027 -129.408 0.0629314 0.392418 -0.917631
70.1879 11.3585 -128.695 0.0633537 0.392242 -0.917677
71.446 12.7705 -128.009 0.0646469 0.389875 -0.918596
72.7085 14.2739 -127.276 0.0681794 0.391915 -0.917471
73.9111 15.7725 -126.548 0.0689267 0.388483 -0.918875
75.1742 17.4093 -125.763 0.0719217 0.386165 -0.919621
76.3701 18.9676 -125.009 0.0751703 0.387214 -0.91892
75.919 20.4866 -124.406 0.0755405 0.387338 -0.918838
74.4618 21.919 -123.923 0.075992 0.387159 -0.918876
73.0001 23.2418 -123.487 0.0759067 0.387106 -0.918905
71.5906 24.6179 -123.026 0.0775605 0.384736 -0.919762
70.0623 25.9256 -122.609 0.0765487 0.384085 -0.920119
68.5352 27.2983 -122.166 0.0777136 0.384315 -0.919925
67.0544 28.607 -121.746 0.0771735 0.383777 -0.920195
65.4753 29.9716 -121.31 0.0775881 0.382556 -0.920668
63.956 31.3305 -120.875 0.0772483 0.380319 -0.921623
62.3284 32.7303 -120.434 0.0752985 0.375872 -0.923607
60.8502 34.0467 -120.018 0.0739669 0.373198 -0.924797
59.3709 35.3647 -119.6 0.0700985 0.371885 -0.925627
57.8621 36.6714 -119.189 0.0703268 0.370065 -0.92634
56.3109 37.9424 -118.816 0.0724553 0.35754 -0.931083
54.6072 39.065 -118.518 0.0725983 0.357102 -0.93124
52.9062 40.1297 -118.243 0.0725757 0.356956 -0.931298
51.0946 41.3176 -117.929 0.0730422 0.356053 -0.931607
49.3965 42.4664 -117.628 0.0753046 0.35356 -0.932376
47.7318 43.5851 -117.339 0.075155 0.353446 -0.932431
46.0316 44.6893 -117.055 0.0691443 0.353771 -0.932773
44.3496 45.8136 -116.752 0.063544 0.349908 -0.934626
42.5998 47.0115 -116.419 0.0552349 0.349455 -0.935324
40.9259 48.1181 -116.091 0.0459004 0.349953 -0.935642
39.2117 49.2153 -115.763 0.0445474 0.350676 -0.935437
37.3773 50.1915 -115.474 0.0290263 0.353817 -0.934862
35.5936 51.073 -115.179 0.0180977 0.358044 -0.933529
33.8107 52.0344 -114.848 0.0197764 0.356678 -0.934018
31.9882 53.0142 -114.513 0.0198107 0.356635 -0.934034
30.1573 53.9919 -114.183 0.0215212 0.349377 -0.936735
28.445 55.1021 -113.818 0.020579 0.342117 -0.939432
26.7245 56.1705 -113.453 0.0142707 0.348344 -0.937258
24.8576 57.0967 -113.129 0.0047448 0.347367 -0.937717
22.8782 57.6531 -112.946 0.0132218 0.341736 -0.939703
20.8713 58.2619 -112.753 0.0131975 0.341761 -0.939694
18.8106 58.9411 -112.542 0.0108641 0.32474 -0.94573
16.9011 59.5797 -112.349 0.00909319 0.323268 -0.946263
14.937 60.1995 -112.149 0.0014071 0.322943 -0.946417
12.8969 60.8671 -111.924 -0.000778931 0.322876 -0.94644
10.9725 61.3859 -111.724 -0.0197814 0.3267 -0.944921
8.98191 61.7177 -111.572 -0.014457 0.328277 -0.944471
6.99579 62.0393 -111.431 -0.0134232 0.329144 -0.944184
6.01046 61.0076 -111.777 -0.0134444 0.329151 -0.944182
6.04422 58.9306 -112.503 -0.0133396 0.330392 -0.943749
6.02185 57.0238 -113.17 -0.019776 0.329235 -0.94404
6.04123 54.9964 -113.87 -0.0290956 0.324536 -0.945426
6.03585 53.0231 -114.546 -0.0292425 0.325757 -0.944999
6.00777 50.9508 -115.289 -0.0225087 0.347037 -0.937581
6.01927 49.073 -115.985 -0.0224848 0.34705 -0.937577
6.02001 47.1504 -116.696 -0.0228492 0.346908 -0.937621
6.00471 45.2514 -117.397 -0.025549 0.345521 -0.938063
5.99209 43.2408 -118.132 -0.0308945 0.342271 -0.939093
6.03771 41.2118 -118.877 -0.0359659 0.347245 -0.937084
6.00185 39.2545 -119.64 -0.0646858 0.372493 -0.925778
5.98027 37.3179 -120.417 -0.0649572 0.372387 -0.925802
6.03846 35.4141 -121.187 -0.0651057 0.372259 -0.925843
6.01025 33.4538 -122.013 -0.0597673 0.415304 -0.907714
6.05759 31.6083 -122.864 -0.0497398 0.416988 -0.90755
7.00123 30.3274 -123.472 -0.00930454 0.408831 -0.912563
8.97941 29.8972 -123.681 -0.00689135 0.408974 -0.91252
10.961 29.5212 -123.87 -0.00500713 0.422225 -0.906477
13.0582 29.2383 -124.021 -0.00635912 0.431231 -0.902219
15.1691 29.0264 -124.097 0.0265263 0.393173 -0.919068
17.1596 28.7827 -124.157 0.00958359 0.372112 -0.928138
19.1811 28.3435 -124.311 0.00986333 0.371667 -0.928314
21.2776 27.7729 -124.517 0.00984713 0.371684 -0.928307
23.2468 27.2044 -124.724 0.00881487 0.371119 -0.928543
25.2494 26.6255 -124.936 0.0133627 0.372597 -0.927897
27.2513 25.9925 -125.152 0.0304249 0.371137 -0.92808
29.0185 25.0652 -125.441 0.0415363 0.365023 -0.930071
30.4563 23.6581 -125.931 0.0389229 0.366752 -0.929504
31.3738 21.8144 -126.62 0.0390129 0.36678 -0.929489
31.5915 19.8354 -127.403 0.0394711 0.379893 -0.924188
30.9605 17.9621 -128.204 0.0390747 0.381927 -0.923366
29.813 16.4157 -128.902 0.0472321 0.390672 -0.919317
28.1578 15.3281 -129.455 0.049242 0.392789 -0.91831
26.1196 14.6616 -129.854 0.052768 0.393248 -0.917917
24.0906 14.2184 -130.161 0.0530914 0.393563 -0.917763
22.0708 13.655 -130.523 0.0493426 0.403404 -0.91369
20.1193 13.0487 -130.896 0.0485874 0.404267 -0.91335
18.0304 12.5894 -131.24 0.0703167 0.410642 -0.909081
16.0523 12.3299 -131.509 0.069418 0.410794 -0.909082
13.9759 12.1133 -131.767 0.0703546 0.410942 -0.908943
11.9738 11.9173 -131.994 0.0589581 0.430351 -0.900726
9.93158 11.8019 -132.233 0.0952788 0.44483 -0.890532
7.91585 11.813 -132.445 0.0949311 0.438659 -0.893626
5.89814 12.0048 -132.607 0.156691 0.461337 -0.873242
3.85888 12.4078 -132.81 0.175494 0.449555 -0.875844
1.94978 13.0008 -132.957 0.231374 0.447718 -0.863721
0.123173 13.9061 -133.049 0.278067 0.448355 -0.849503
-1.80848 14.4399 -133.421 0.370041 0.410963 -0.833015
-3.65428 14.3947 -134.41 0.460957 0.356466 -0.812681
-5.43636 14.451 -135.398 0.46177 0.355944 -0.812449
-7.20819 14.4896 -136.427 0.511067 0.349367 -0.785336
-8.89163 14.5425 -137.527 0.521944 0.363043 -0.771584
-10.6784 14.5049 -138.743 0.517877 0.345241 -0.782696
-12.2473 14.4354 -139.977 0.684553 0.297189 -0.665632
-13.5977 14.3621 -141.512 0.72281 0.305365 -0.619918
-14.9783 14.2963 -143.1 0.715442 0.28467 -0.638049
-15.5878 14.2322 -143.812 0.714717 0.287204 -0.637724
-16.5827 17.9846 -143.074 0.781403 0.261719 -0.566492
-17.7867 18.0001 -144.728 0.780789 0.261482 -0.567447
-18.9774 17.9302 -146.368 0.784145 0.238964 -0.572725
-18.8214 16.223 -146.907 0.771015 0.255952 -0.583115
-18.2515 14.2009 -147.043 0.770885 0.256878 -0.582881
-17.6519 12.2388 -147.147 0.757346 0.276239 -0.591709
-16.9829 10.1524 -147.24 0.763254 0.24559 -0.597603
-16.4049 8.23338 -147.282 0.752971 0.248529 -0.609318
-15.7811 6.18163 -147.354 0.743795 0.254681 -0.617986
-15.1823 4.22185 -147.471 0.736817 0.266688 -0.621271
-14.4773 2.2084 -147.458 0.76925 0.235253 -0.594063
-13.252 2.08503 -145.831 0.790057 0.221 -0.571812
-12.0476 2.03536 -144.216 0.765009 0.18847 -0.615169
-10.4131 1.97413 -142.878 0.490893 0.243228 -0.836399
-8.66606 2.01398 -141.888 0.465115 0.272951 -0.842119
-6.83638 1.99425 -140.879 0.467004 0.274222 -0.84066
-5.03513 1.9721 -139.876 0.471319 0.280715 -0.836097
-3.25097 1.92524 -138.957 0.350667 0.311095 -0.883319
-1.1302 1.85393 -138.507 0.0997884 0.420765 -0.901665
1.04169 1.8853 -138.287 0.0983806 0.422997 -0.900705
3.10542 1.87868 -137.96 0.162313 0.409677 -0.897674
5.10447 1.88801 -137.595 0.1623 0.409692 -0.89767
7.27192 1.89704 -137.197 0.167997 0.411043 -0.896003
9.26644 1.89344 -136.855 0.0981097 0.41418 -0.904892
11.3426 1.89977 -136.66 0.0793758 0.417654 -0.905129
13.36 1.90068 -136.501 0.0758815 0.415933 -0.906224
15.5266 1.94514 -136.276 0.0901593 0.41083 -0.907243
17.6705 1.94679 -136.062 0.0901172 0.410831 -0.907247
19.6914 1.90821 -135.881 0.0852953 0.411035 -0.907621
21.7292 1.92571 -135.71 0.0639395 0.403034 -0.912949
23.8773 1.90568 -135.562 0.0698643 0.401744 -0.913083
25.94 1.90365 -135.394 0.0756486 0.399216 -0.913731
28.0684 1.90199 -135.221 0.0722919 0.395607 -0.91557
30.1421 1.85755 -135.088 0.0636164 0.392955 -0.917355
32.162 1.8827 -134.927 0.0712832 0.388555 -0.918664
34.2525 1.89715 -134.759 0.0713278 0.388379 -0.918735
36.2536 1.89309 -134.605 0.0708633 0.38819 -0.918851
38.4354 1.92687 -134.437 0.0629706 0.38291 -0.921637
40.5329 1.90875 -134.304 0.0611109 0.382537 -0.921917
42.632 1.91972 -134.16 0.0611271 0.382251 -0.922034
44.6993 1.92662 -134.02 0.0612751 0.380798 -0.922626
46.8325 1.91407 -133.888 0.0547303 0.377545 -0.924372
48.9217 1.92495 -133.769 0.0459434 0.377593 -0.924831
50.9259 1.92854 -133.67 0.044913 0.378434 -0.924538
53.0136 1.92267 -133.571 0.0450328 0.378735 -0.924409
55.0814 1.94477 -133.468 0.0347282 0.379033 -0.924728
57.1057 1.90548 -133.421 0.0288259 0.381872 -0.923765
59.1366 1.90454 -133.346 0.0412202 0.391617 -0.919204
61.25 1.906 -133.246 0.0451455 0.393572 -0.918185
63.3371 1.9255 -133.137 0.0453529 0.396285 -0.917007
65.4485 1.87263 -133.05 0.0487508 0.395321 -0.917248
67.3334 2.44349 -132.708 0.0470241 0.39304 -0.918318
68.6661 3.7925 -132.061 0.0509115 0.395537 -0.917038
69.9788 5.21539 -131.366 0.0605393 0.398531 -0.915155
71.207 6.63182 -130.668 0.0615493 0.398197 -0.915233
72.4747 8.05138 -129.963 0.0650686 0.397193 -0.915425
73.7854 9.55776 -129.215 0.0704776 0.396399 -0.915369
75.0454 10.9785 -128.501 0.0749954 0.393805 -0.916129
76.2615 12.4156 -127.792 0.074049 0.389754 -0.917937
77.4637 14.0007 -127.018 0.0772963 0.390508 -0.917349
78.6857 15.586 -126.245 0.0749771 0.387171 -0.918954
79.8401 17.0609 -125.53 0.0749414 0.387121 -0.918978
80.9956 18.659 -124.762 0.0746419 0.38746 -0.91886
81.4609 20.2799 -124.041 0.074917 0.387191 -0.918951
80.0454 21.6486 -123.581 0.0745429 0.387014 -0.919056
78.6134 23.0214 -123.118 0.0746767 0.387565 -0.918812
77.2092 24.4048 -122.649 0.0747401 0.387574 -0.918804
75.7788 25.7616 -122.194 0.075857 0.387668 -0.918673
74.2541 27.235 -121.702 0.0790092 0.38519 -0.919449
72.6277 28.6285 -121.259 0.0786412 0.382576 -0.920571
71.155 29.9671 -120.83 0.0773843 0.379861 -0.921801
69.6556 31.2509 -120.429 0.0772281 0.377883 -0.922627
68.1995 32.5598 -120.015 0.0772218 0.377881 -0.922628
66.5941 33.9717 -119.571 0.0772368 0.377899 -0.92262
65.0142 35.3205 -119.151 0.0772261 0.377877 -0.922629
63.531 36.662 -118.725 0.0767686 0.378 -0.922617
62.0166 37.9776 -118.311 0.0755045 0.378556 -0.922493
60.5417 39.269 -117.903 0.0808305 0.378242 -0.922171
59.0509 40.5995 -117.521 0.0984077 0.364084 -0.926153
57.3897 41.7073 -117.267 0.0994452 0.362904 -0.926505
55.569 42.8668 -116.986 0.0759505 0.355349 -0.931643
53.795 43.9873 -116.697 0.0744723 0.354653 -0.932027
52.1209 45.1198 -116.402 0.0752926 0.353556 -0.932378
50.4337 46.2569 -116.107 0.0752992 0.353577 -0.93237
48.7835 47.3832 -115.813 0.0753021 0.353556 -0.932378
47.1281 48.476 -115.533 0.0753017 0.353563 -0.932375
45.4344 49.6071 -115.241 0.0752869 0.353546 -0.932383
43.7476 50.7719 -114.934 0.0716461 0.353306 -0.932759
42.0434 51.8806 -114.627 0.0502982 0.349136 -0.935718
40.3178 52.8971 -114.331 0.0448821 0.350377 -0.935533
38.3493 53.8848 -114.044 0.0288025 0.357367 -0.93352
36.5387 54.8495 -113.718 0.0202361 0.352639 -0.93554
34.7367 55.8317 -113.399 0.0237338 0.340577 -0.939917
32.9832 56.7801 -113.098 0.023372 0.340572 -0.939928
31.2403 57.8024 -112.77 0.0223684 0.342873 -0.939115
29.5681 58.8427 -112.413 0.0142183 0.363006 -0.931678
27.8084 59.8687 -112.034 0.0144114 0.374232 -0.927223
25.9834 60.7555 -111.768 0.0600984 0.337982 -0.939223
23.9155 61.2609 -111.691 0.0242525 0.316141 -0.948402
21.9777 61.801 -111.539 0.0115378 0.31998 -0.947354
20.0243 62.4903 -111.323 0.00807501 0.325176 -0.945619
18.1132 63.1408 -111.115 0.00806827 0.325171 -0.945621
16.1045 63.8062 -110.903 0.00806586 0.325164 -0.945623
14.1861 64.4395 -110.701 0.00491117 0.323771 -0.946123
12.2475 65.0226 -110.494 -0.0173628 0.325637 -0.945336
10.2596 65.3794 -110.33 -0.0199129 0.326446 -0.945006
8.15085 65.704 -110.174 -0.0173413 0.326952 -0.944882
6.15098 65.9406 -110.064 0.00970766 0.318667 -0.947815
4.14984 66.0093 -110.098 0.0466028 0.296029 -0.954042
2.12006 65.9167 -110.229 0.0482043 0.29613 -0.95393
2.04849 64.0255 -110.82 0.0481929 0.296391 -0.95385
2.03437 62.1037 -111.43 0.0228044 0.310486 -0.950269
2.06332 60.2 -112.07 0.0122821 0.315497 -0.948845
2.08961 58.1777 -112.707 0.0141328 0.298645 -0.954259
2.09382 56.1422 -113.36 -0.0239965 0.310082 -0.950407
2.0552 54.2327 -114.006 -0.029782 0.324064 -0.945566
2.07256 52.3403 -114.681 -0.0235198 0.344562 -0.938469
2.06874 50.4134 -115.39 -0.0258687 0.344798 -0.93832
2.06028 48.4447 -116.108 -0.0308863 0.341972 -0.939202
2.06928 46.4319 -116.841 -0.0309388 0.341937 -0.939213
2.04455 44.5023 -117.543 -0.0309497 0.341948 -0.939209
2.06344 42.5441 -118.256 -0.0309308 0.342011 -0.939187
2.07673 40.6098 -118.962 -0.0310204 0.342647 -0.938952
2.06227 38.6273 -119.685 -0.0310554 0.342861 -0.938873
2.06502 36.7163 -120.393 -0.0428981 0.352211 -0.934918
2.06348 34.7952 -121.162 -0.0575161 0.390577 -0.918744
2.05055 32.9586 -121.991 -0.0429517 0.427912 -0.902799
2.0784 31.1004 -122.907 -0.0274961 0.446309 -0.894457
2.08445 29.2413 -123.835 -0.027508 0.446296 -0.894462
2.43377 27.5436 -124.68 -0.0236801 0.435331 -0.899959
4.44092 27.1712 -124.906 -0.0180206 0.429753 -0.902767
6.53678 26.7916 -125.127 -0.0177955 0.429225 -0.903022
8.63307 26.3752 -125.363 -0.0122978 0.434235 -0.900716
10.6469 25.994 -125.568 -0.00837597 0.435933 -0.89994
12.7581 25.7195 -125.659 0.0428706 0.402263 -0.91452
14.8414 25.4588 -125.675 0.0435387 0.401583 -0.914787
16.9418 25.1935 -125.695 0.039215 0.400624 -0.915403
19.0558 24.6007 -125.865 0.0390079 0.40069 -0.915383
20.9816 24.0492 -126.027 0.0337341 0.393084 -0.918883
22.9529 23.4671 -126.225 0.01399 0.376173 -0.926441
25.0187 22.8605 -126.447 0.0100213 0.371417 -0.928412
26.9019 22.0181 -126.731 0.0430528 0.363423 -0.930629
27.737 20.3751 -127.344 0.0404264 0.372776 -0.92704
26.758 18.787 -128.052 0.0497606 0.389116 -0.919844
24.8351 18.1138 -128.447 0.0491641 0.393895 -0.91784
22.8178 17.6067 -128.767 0.0429361 0.397166 -0.916742
20.8643 17.0635 -129.093 0.0429211 0.397142 -0.916753
18.8132 16.4896 -129.443 0.0476252 0.402593 -0.914139
16.7647 16.0428 -129.777 0.0680014 0.410722 -0.909221
14.776 15.8608 -130.001 0.0519863 0.41657 -0.907613
12.6864 15.616 -130.218 0.0418118 0.4256 -0.903945
10.7046 15.4012 -130.41 0.0441859 0.426538 -0.903386
8.62234 15.2979 -130.624 0.0920159 0.445576 -0.890503
6.51884 15.4357 -130.757 0.0939733 0.452038 -0.887035
4.54702 15.7722 -130.844 0.145582 0.463831 -0.873789
2.66665 16.4234 -130.995 0.258226 0.45632 -0.851523
0.869373 17.354 -131.017 0.245167 0.445508 -0.861055
-1.0336 18.0605 -131.337 0.4311 0.380601 -0.818105
-2.86264 18.1066 -132.307 0.438469 0.387591 -0.810874
-4.78858 18.0869 -133.348 0.432998 0.392288 -0.811556
-6.64805 18.0899 -134.339 0.433017 0.392273 -0.811553
-8.4179 18.1288 -135.274 0.443124 0.403749 -0.800393
-10.2532 18.119 -136.452 0.503976 0.427178 -0.750684
-11.9437 18.1105 -137.612 0.535281 0.429775 -0.727164
-13.446 18.1034 -139.187 0.706325 0.370968 -0.6029
-14.8592 18.0462 -140.84 0.702388 0.361534 -0.613143
-16.1644 18.0122 -142.487 0.774653 0.27011 -0.571799
-16.4844 17.9945 -142.934 0.781408 0.261721 -0.566484
-13.1165 10.2712 -142.583 0.700747 0.269093 -0.660714
-11.501 9.73656 -141.235 0.650926 0.306697 -0.694429
-9.72761 9.30481 -140.115 0.515761 0.299395 -0.802716
-7.94117 8.91792 -139.096 0.522175 0.277705 -0.806358
-6.0657 8.57307 -138.168 0.439356 0.316626 -0.840663
-4.21759 8.25181 -137.291 0.458791 0.284998 -0.841598
-2.25217 8.01372 -136.644 0.282047 0.296441 -0.912454
-0.315154 7.81738 -136.109 0.281727 0.296406 -0.912564
1.64877 7.62193 -135.6 0.192398 0.335491 -0.922187
3.62998 7.49979 -135.295 0.176455 0.414416 -0.892817
5.6016 7.35698 -134.95 0.191538 0.426837 -0.883812
6.48993 7.28934 -134.79 0.191745 0.42695 -0.883712
3.80823 10.6457 -133.724 0.180164 0.444582 -0.877433
1.74563 10.8542 -134.134 0.266593 0.444875 -0.854993
-0.283793 11.1147 -134.655 0.278088 0.448357 -0.849496
-2.28113 11.3724 -135.173 0.277724 0.448206 -0.849694
-4.26433 11.7408 -135.92 0.459182 0.356433 -0.8137
-6.10083 12.1462 -136.75 0.439901 0.341104 -0.830743
-7.85665 12.5962 -137.634 0.52775 0.317036 -0.788015
-8.17497 12.6844 -137.812 0.528028 0.316236 -0.788151
12.561 10.1462 -132.77 0.0753122 0.415387 -0.906522
14.5678 10.0813 -132.64 0.0701298 0.411047 -0.908913
16.6321 10.0188 -132.509 0.0696641 0.410858 -0.909034
18.7104 9.95723 -132.376 0.0705326 0.410577 -0.909094
20.8817 9.89884 -132.248 0.0567596 0.401705 -0.914008
22.9573 9.84797 -132.134 0.0616737 0.399525 -0.914646
25.1468 9.79536 -132.014 0.0579341 0.398736 -0.915234
27.1807 9.74843 -131.906 0.0582649 0.398416 -0.915352
29.2017 9.70037 -131.794 0.060597 0.389988 -0.918824
31.2499 9.65332 -131.683 0.0583124 0.387061 -0.920208
33.2486 9.60811 -131.575 0.0583184 0.387067 -0.920205
35.2707 9.56171 -131.464 0.0606852 0.386418 -0.920325
37.3943 9.51432 -131.349 0.0564567 0.383278 -0.921906
39.4513 9.46979 -131.241 0.0579514 0.381377 -0.922601
41.4763 9.42497 -131.132 0.0580216 0.380796 -0.922837
43.4968 9.38142 -131.025 0.056175 0.380132 -0.923225
45.5841 9.33705 -130.917 0.0557162 0.379632 -0.923459
47.7699 9.29316 -130.809 0.0526611 0.381999 -0.922661
49.7849 9.25295 -130.71 0.052967 0.383106 -0.922184
51.8085 9.21382 -130.615 0.0466962 0.383351 -0.922421
53.8862 9.17766 -130.526 0.0457723 0.383296 -0.922491
55.904 9.14129 -130.438 0.0474681 0.383768 -0.922209
57.9247 9.10466 -130.35 0.0469718 0.385355 -0.921572
60.037 9.06651 -130.258 0.0471536 0.385726 -0.921408
62.0541 9.02944 -130.17 0.0455068 0.385115 -0.921746
64.0779 8.99234 -130.082 0.0498942 0.387642 -0.920459
65.4965 8.963 -130.014 0.0542822 0.387258 -0.920372
68.033 12.0184 -128.563 0.0641623 0.391833 -0.917796
66.0359 12.0661 -128.676 0.0562928 0.388376 -0.91978
64.0232 12.107 -128.773 0.0487936 0.387935 -0.920394
61.8349 12.1491 -128.873 0.051961 0.384321 -0.921736
59.8273 12.1896 -128.97 0.0504709 0.382479 -0.922585
57.715 12.229 -129.064 0.0478385 0.380584 -0.923508
55.6656 12.2667 -129.155 0.0478815 0.379832 -0.923816
53.4633 12.3066 -129.252 0.0473814 0.37853 -0.924376
51.4227 12.3441 -129.343 0.0517954 0.376705 -0.924884
49.4018 12.3855 -129.444 0.054737 0.37665 -0.924737
47.2347 12.4304 -129.554 0.0543586 0.376752 -0.924718
45.0863 12.4737 -129.66 0.0532861 0.37727 -0.924569
43.0535 12.5163 -129.764 0.0557732 0.37882 -0.923788
41.0074 12.5595 -129.869 0.0548903 0.379145 -0.923708
38.8858 12.6044 -129.978 0.0560068 0.380148 -0.923228
36.8781 12.6475 -130.082 0.0560282 0.38015 -0.923226
34.8764 12.6897 -130.184 0.0515179 0.382381 -0.922567
32.8346 12.7326 -130.285 0.0575403 0.387927 -0.919892
30.7532 12.7799 -130.397 0.0578939 0.387988 -0.919844
28.7274 12.8228 -130.496 0.0496071 0.392847 -0.918265
26.6678 12.8649 -130.592 0.0527141 0.393699 -0.917727
26.4389 12.8698 -130.603 0.0531128 0.3935 -0.917789
31.9196 15.8685 -129.026 0.0486254 0.382021 -0.922874
33.9478 15.8293 -128.933 0.0489025 0.380951 -0.923301
35.9548 15.7907 -128.841 0.0511208 0.381563 -0.922928
38.0688 15.7468 -128.736 0.0550528 0.378834 -0.923826
40.1991 15.7023 -128.628 0.0549645 0.378177 -0.9241
42.2169 15.6602 -128.525 0.0545878 0.377873 -0.924247
44.3219 15.6174 -128.421 0.0521921 0.376505 -0.924943
46.4642 15.5747 -128.317 0.0523558 0.376932 -0.92476
48.5485 15.5324 -128.213 0.0541762 0.376438 -0.924856
50.7121 15.4881 -128.105 0.0539921 0.3762 -0.924964
52.7205 15.4483 -128.008 0.0491515 0.377654 -0.924641
54.7863 15.4091 -127.913 0.0509994 0.379235 -0.923894
56.9054 15.3682 -127.813 0.0495044 0.38026 -0.923554
58.9223 15.3297 -127.72 0.052558 0.382351 -0.922521
60.9686 15.2881 -127.62 0.0529464 0.38223 -0.922549
63.0058 15.2468 -127.521 0.0525364 0.380113 -0.923447
65.2218 15.2003 -127.411 0.0593767 0.381341 -0.922526
67.2737 15.1504 -127.292 0.0634626 0.382013 -0.921976
69.4787 15.096 -127.163 0.0640444 0.383934 -0.921137
70.745 15.0636 -127.086 0.0675587 0.387626 -0.919338
73.2652 18.1134 -125.616 0.070738 0.384734 -0.920313
71.1486 18.1715 -125.755 0.0704827 0.384778 -0.920314
69.1297 18.2259 -125.884 0.0689783 0.384956 -0.920354
67.132 18.2769 -126.006 0.06377 0.382122 -0.921909
65.0665 18.3264 -126.125 0.0603278 0.382498 -0.921985
63.0347 18.3729 -126.236 0.0566417 0.380552 -0.923023
60.9451 18.4151 -126.338 0.0515768 0.378469 -0.924176
58.8261 18.4571 -126.44 0.0528628 0.377271 -0.924593
56.7993 18.4995 -126.543 0.0558968 0.375085 -0.925304
54.7369 18.5406 -126.643 0.0510375 0.372372 -0.926679
52.7044 18.5803 -126.74 0.0520757 0.372668 -0.926502
50.5203 18.6256 -126.851 0.0550853 0.371695 -0.926719
48.4366 18.6687 -126.956 0.0531989 0.372518 -0.926499
46.4154 18.7078 -127.052 0.0512658 0.373695 -0.926134
44.3059 18.7496 -127.154 0.0527021 0.374147 -0.92587
42.1693 18.7913 -127.256 0.052411 0.375149 -0.925482
40.1522 18.8328 -127.358 0.0547249 0.375597 -0.925166
38.1476 18.8749 -127.46 0.0558224 0.374484 -0.925552
36.1327 18.9159 -127.559 0.0484578 0.375623 -0.925505
34.0997 18.9511 -127.643 0.0466296 0.378216 -0.924542
33.4204 18.9638 -127.674 0.0477813 0.379261 -0.924055
33.4177 22.0971 -126.415 0.049137 0.366253 -0.929217
35.5369 22.0579 -126.319 0.047621 0.371317 -0.927284
37.5452 22.0191 -126.225 0.0559672 0.373253 -0.92604
39.5572 21.9772 -126.122 0.0549108 0.368951 -0.927826
41.6998 21.9337 -126.016 0.0523849 0.367122 -0.928696
43.7309 21.895 -125.921 0.0497802 0.365204 -0.929595
45.8201 21.8547 -125.821 0.0506504 0.366311 -0.929113
47.874 21.8152 -125.724 0.0518766 0.368884 -0.928027
49.9485 21.7735 -125.622 0.056072 0.370918 -0.926971
51.9628 21.7311 -125.517 0.0550472 0.372168 -0.926532
53.9708 21.691 -125.419 0.0521763 0.373275 -0.926252
56.0972 21.6457 -125.308 0.0588364 0.376493 -0.924549
58.1963 21.5996 -125.195 0.0553465 0.376879 -0.924608
60.1969 21.559 -125.096 0.0530605 0.376319 -0.924969
62.2127 21.5157 -124.991 0.0597979 0.377724 -0.923985
64.244 21.469 -124.878 0.0606058 0.377452 -0.924044
66.2755 21.4211 -124.762 0.0643757 0.378653 -0.923297
68.3343 21.3665 -124.631 0.0693106 0.384735 -0.920421
70.3523 21.3126 -124.501 0.0692388 0.384934 -0.920343
72.4275 21.2564 -124.367 0.0711825 0.384973 -0.920179
68.8263 24.4784 -123.307 0.0729128 0.379099 -0.922479
66.8284 24.5341 -123.442 0.0728373 0.379056 -0.922503
64.7318 24.589 -123.576 0.0610537 0.376592 -0.924365
62.6612 24.6368 -123.692 0.0608421 0.375895 -0.924663
60.5961 24.6848 -123.81 0.0587528 0.373822 -0.925638
58.5544 24.7259 -123.91 0.0528844 0.371258 -0.927023
56.5363 24.7697 -124.018 0.0574839 0.368635 -0.927795
54.5085 24.8132 -124.125 0.0567955 0.369916 -0.927327
52.4771 24.8574 -124.234 0.0594653 0.367919 -0.927954
50.4404 24.904 -124.35 0.0615055 0.365753 -0.928677
48.3949 24.9496 -124.463 0.0548832 0.365448 -0.929212
46.3762 24.9903 -124.564 0.0528939 0.364592 -0.929664
44.271 25.0314 -124.666 0.051464 0.363034 -0.930354
42.2492 25.07 -124.762 0.052169 0.362927 -0.930356
40.2099 25.1107 -124.862 0.0532551 0.362066 -0.93063
38.0783 25.153 -124.967 0.0521278 0.362199 -0.930642
36.0283 25.191 -125.06 0.0472692 0.364329 -0.93007
33.8974 25.23 -125.156 0.0492844 0.365673 -0.929438
31.8019 25.2646 -125.24 0.0393483 0.366463 -0.9296
31.5647 25.2682 -125.249 0.0397678 0.36617 -0.929698
25.5203 28.4809 -124.187 0.0136782 0.372841 -0.927794
27.5884 28.4687 -124.158 0.0227634 0.370956 -0.928372
29.6267 28.4405 -124.089 0.0413312 0.365258 -0.929988
31.6585 28.4087 -124.011 0.0413113 0.365244 -0.929995
33.8033 28.3753 -123.929 0.0440501 0.35914 -0.932244
35.8464 28.3393 -123.839 0.0471259 0.35954 -0.931939
37.8487 28.3034 -123.75 0.0484709 0.362204 -0.930838
39.8652 28.2655 -123.655 0.0526736 0.359347 -0.931716
41.8648 28.2265 -123.558 0.0521711 0.358265 -0.932161
43.8627 28.1864 -123.457 0.0555868 0.359583 -0.931456
45.9719 28.143 -123.348 0.0543308 0.364659 -0.929555
47.9756 28.1027 -123.248 0.0544217 0.365537 -0.929205
50.1234 28.0554 -123.129 0.0621419 0.366363 -0.928395
52.1862 28.0072 -123.009 0.0629626 0.366712 -0.928201
54.2729 27.9593 -122.889 0.0581319 0.368689 -0.927733
56.3223 27.9147 -122.778 0.060564 0.370071 -0.927027
58.4462 27.8661 -122.658 0.0605102 0.371205 -0.926577
60.4436 27.8214 -122.548 0.0627994 0.375508 -0.924689
62.4681 27.7735 -122.43 0.0623266 0.376187 -0.924445
64.4792 27.726 -122.314 0.0680074 0.377698 -0.923428
65.1591 27.7082 -122.27 0.0725461 0.378497 -0.922755
61.543 30.9297 -121.215 0.0664088 0.370504 -0.926454
59.3725 30.984 -121.35 0.0662109 0.368877 -0.927117
57.3666 31.0309 -121.467 0.0608087 0.369395 -0.927281
55.3674 31.0764 -121.58 0.0633931 0.367774 -0.927752
53.2586 31.1294 -121.714 0.0651298 0.359436 -0.930894
51.2369 31.177 -121.834 0.0631186 0.357049 -0.931951
49.1757 31.2252 -121.955 0.06317 0.357198 -0.93189
47.0997 31.2716 -122.072 0.05897 0.35657 -0.932406
45.0599 31.3157 -122.184 0.0588226 0.356522 -0.932434
43.0336 31.359 -122.294 0.0549147 0.355891 -0.932913
41.031 31.3977 -122.392 0.0517773 0.356536 -0.932846
38.9264 31.4368 -122.491 0.0496105 0.357374 -0.932643
36.7518 31.4761 -122.59 0.0485976 0.35713 -0.932789
34.7114 31.5124 -122.682 0.0457948 0.357236 -0.932891
32.6582 31.5404 -122.751 0.0309241 0.360837 -0.932116
30.5769 31.5677 -122.819 0.0403297 0.365473 -0.929948
28.5583 31.5956 -122.887 0.0229208 0.371624 -0.9281
26.3513 31.6081 -122.918 0.0136884 0.372865 -0.927785
24.3281 31.6187 -122.943 0.013685 0.372687 -0.927856
22.2434 31.6274 -122.964 0.00986929 0.371677 -0.92831
20.0899 31.6358 -122.983 0.00986903 0.37165 -0.928321
17.9486 31.644 -123.002 0.00936895 0.372703 -0.927903
15.8756 31.6512 -123.019 0.00825933 0.373039 -0.927779
13.8338 31.6436 -123 -0.0262345 0.372579 -0.92763
11.834 31.6224 -122.949 -0.0264141 0.376509 -0.926036
9.69144 31.6102 -122.92 -0.00703718 0.408045 -0.912935
9.642 31.6101 -122.919 -0.00704856 0.40805 -0.912932
8.08288 34.7076 -121.581 -0.0345691 0.373451 -0.927006
10.1412 34.733 -121.642 -0.0319779 0.370819 -0.928155
12.1779 34.7565 -121.7 -0.024864 0.374261 -0.92699
14.2409 34.7732 -121.741 -0.0194556 0.375763 -0.926511
16.4303 34.7793 -121.756 0.00844467 0.373862 -0.927446
18.4746 34.7724 -121.739 0.0088716 0.37316 -0.927725
20.4941 34.7655 -121.723 0.00884653 0.373164 -0.927723
22.5701 34.7591 -121.707 0.0065392 0.370072 -0.92898
24.6007 34.7501 -121.685 0.0149611 0.3644 -0.931122
26.65 34.7388 -121.657 0.0145875 0.366243 -0.930405
28.733 34.7277 -121.63 0.0155418 0.368922 -0.92933
30.7772 34.7095 -121.585 0.029897 0.361308 -0.931967
32.9112 34.686 -121.526 0.0297121 0.36076 -0.932185
35.0385 34.6594 -121.458 0.0449841 0.357759 -0.93273
37.1177 34.6231 -121.366 0.0490275 0.357211 -0.932736
39.2622 34.5844 -121.267 0.0496315 0.357375 -0.932641
41.3881 34.5459 -121.168 0.0500848 0.357143 -0.932706
43.4015 34.5069 -121.069 0.0582728 0.356506 -0.932474
45.4017 34.4641 -120.959 0.0590724 0.356693 -0.932352
47.4492 34.4201 -120.846 0.0591005 0.356704 -0.932346
49.4765 34.3744 -120.729 0.0633385 0.356866 -0.932006
51.5364 34.3259 -120.605 0.0690665 0.359931 -0.930419
53.5942 34.2711 -120.466 0.0740054 0.363416 -0.928683
55.5996 34.2165 -120.327 0.0734195 0.364191 -0.928426
57.6665 34.1654 -120.198 0.0607803 0.369364 -0.927295
57.9164 34.1598 -120.184 0.0611804 0.369413 -0.927249
53.6268 37.419 -119.231 0.0739388 0.363416 -0.928688
51.6296 37.4727 -119.369 0.0740895 0.363431 -0.92867
49.5212 37.5284 -119.514 0.0693147 0.359466 -0.93058
47.4411 37.5765 -119.639 0.0596448 0.356968 -0.932211
45.4219 37.6195 -119.75 0.059338 0.356213 -0.932519
43.3733 37.6648 -119.869 0.0624863 0.351328 -0.934165
41.3525 37.7024 -119.966 0.0463001 0.35054 -0.935403
39.2613 37.7383 -120.059 0.0476396 0.354679 -0.933774
37.2425 37.7742 -120.152 0.0495974 0.357334 -0.932659
35.2114 37.8085 -120.241 0.0382083 0.357863 -0.932992
33.1619 37.8322 -120.301 0.0314576 0.358601 -0.932961
31.0155 37.8568 -120.365 0.0248035 0.359973 -0.932633
29.0148 37.8712 -120.401 0.0153547 0.361519 -0.932238
26.9107 37.883 -120.431 0.01515 0.361497 -0.93225
24.9055 37.8932 -120.457 0.00744487 0.366478 -0.930397
22.8014 37.8963 -120.464 0.00232782 0.367749 -0.929922
20.7655 37.8982 -120.469 0.00217468 0.36841 -0.929661
18.6873 37.9021 -120.478 0.00833939 0.373006 -0.927791
16.5985 37.909 -120.495 0.00882251 0.373181 -0.927717
14.3838 37.9005 -120.474 -0.0209456 0.37618 -0.92631
12.3241 37.8844 -120.434 -0.0209423 0.37617 -0.926314
10.251 37.8672 -120.391 -0.0280371 0.372599 -0.927569
8.10666 37.842 -120.329 -0.0362755 0.372 -0.927524
7.9955 37.8405 -120.325 -0.0365353 0.371612 -0.927669
8.01147 40.9748 -119.072 -0.0371875 0.374374 -0.926532
10.059 40.9935 -119.12 -0.0209288 0.376129 -0.926331
12.0594 41.0089 -119.16 -0.0214851 0.373962 -0.927195
14.0919 41.0246 -119.199 -0.0220592 0.373524 -0.927358
16.1134 41.0386 -119.235 -0.0109119 0.36615 -0.930492
18.2119 41.038 -119.233 0.00205188 0.367593 -0.929984
20.2175 41.0363 -119.229 0.00231277 0.367786 -0.929908
22.3905 41.0345 -119.224 0.00231939 0.367793 -0.929905
24.6456 41.0327 -119.219 0.00231556 0.367755 -0.92992
26.7075 41.0298 -119.212 0.00834324 0.363205 -0.931672
28.8862 41.0187 -119.183 0.015698 0.36154 -0.932224
30.9136 41.0055 -119.148 0.0189765 0.361854 -0.932042
33.0803 40.9863 -119.098 0.0313983 0.357646 -0.933329
35.1402 40.9624 -119.036 0.030359 0.354877 -0.93442
37.2152 40.9335 -118.96 0.0459094 0.349962 -0.935638
39.2409 40.9004 -118.873 0.0459233 0.349935 -0.935648
41.3613 40.8658 -118.782 0.0458977 0.349943 -0.935646
43.5331 40.8253 -118.675 0.0629124 0.349814 -0.934704
45.604 40.7786 -118.551 0.0635515 0.349916 -0.934623
47.685 40.73 -118.423 0.0722461 0.352604 -0.93298
48.6389 40.7051 -118.358 0.074722 0.354428 -0.932093
43.613 43.9875 -117.485 0.0635509 0.349919 -0.934622
41.5054 44.0272 -117.592 0.0460529 0.349732 -0.935717
39.5033 44.0594 -117.678 0.0459515 0.349942 -0.935644
37.4809 44.0916 -117.765 0.0440619 0.350916 -0.93537
35.456 44.1164 -117.831 0.0278026 0.353898 -0.934871
33.4249 44.1353 -117.882 0.0231713 0.35727 -0.933713
31.4005 44.149 -117.919 0.0180028 0.360977 -0.932401
29.3719 44.1621 -117.954 0.0176954 0.36178 -0.932096
27.2074 44.1692 -117.973 0.00420987 0.364749 -0.931096
25.1689 44.1722 -117.982 0.00396617 0.359842 -0.933005
23.1685 44.1759 -117.992 0.00624578 0.355628 -0.934607
21.0442 44.1805 -118.005 0.00633743 0.355672 -0.934589
18.9917 44.185 -118.017 0.00604543 0.355794 -0.934545
16.8512 44.1881 -118.025 0.00375914 0.357499 -0.933906
14.756 44.1802 -118.005 -0.0241407 0.353077 -0.935283
12.6574 44.1618 -117.958 -0.0243334 0.353711 -0.935038
10.6286 44.1441 -117.912 -0.0240563 0.353712 -0.935045
8.57677 44.1285 -117.871 -0.0172627 0.348286 -0.937229
8.03018 44.1249 -117.862 -0.0190181 0.34763 -0.937439
7.99468 47.29 -116.691 -0.0207333 0.347561 -0.937428
10.1349 47.302 -116.723 -0.014939 0.346581 -0.937901
12.2388 47.3148 -116.756 -0.0209098 0.351806 -0.935839
14.3288 47.3323 -116.802 -0.0227862 0.354091 -0.934933
16.3496 47.3397 -116.821 0.00377399 0.357516 -0.933899
18.3765 47.3372 -116.814 0.00375358 0.357507 -0.933903
20.4058 47.3347 -116.807 0.00386656 0.35717 -0.934031
22.4482 47.3313 -116.797 0.00621852 0.354876 -0.934893
24.5554 47.3276 -116.786 0.00512128 0.352873 -0.935657
26.6791 47.3242 -116.776 0.00517919 0.352398 -0.935836
28.8231 47.3167 -116.755 0.0187159 0.35729 -0.933806
30.8464 47.3033 -116.718 0.0191852 0.357487 -0.933721
32.9054 47.2904 -116.683 0.0179651 0.35819 -0.933476
35.0409 47.2769 -116.645 0.022835 0.355683 -0.934328
37.167 47.2567 -116.589 0.0325727 0.352478 -0.935253
38.7859 47.2336 -116.526 0.0450436 0.350526 -0.935469
32.6575 50.444 -115.48 0.019855 0.356735 -0.933995
30.6308 50.4574 -115.518 0.0198319 0.356657 -0.934025
28.5761 50.4712 -115.556 0.0198199 0.356634 -0.934034
26.5756 50.4822 -115.587 0.00916255 0.353604 -0.93535
24.5272 50.4854 -115.597 0.00507888 0.352254 -0.93589
22.4896 50.4888 -115.607 0.00506042 0.351765 -0.936075
20.4531 50.4904 -115.613 0.0012427 0.352258 -0.935902
18.3501 50.4911 -115.615 0.00126304 0.352272 -0.935897
16.2684 50.4919 -115.618 0.00240349 0.35246 -0.935824
14.1709 50.4887 -115.61 -0.016914 0.342308 -0.939436
11.9621 50.477 -115.579 -0.0148078 0.345372 -0.938349
9.88305 50.4659 -115.55 -0.0149134 0.346145 -0.938062
8.16916 50.4562 -115.524 -0.0212929 0.346168 -0.937931
8.058 53.6341 -114.389 -0.0167777 0.32966 -0.943951
10.1688 53.6444 -114.418 -0.0165117 0.332826 -0.942844
12.1931 53.6564 -114.45 -0.0171579 0.333133 -0.942724
14.4122 53.6644 -114.472 -0.00325167 0.338933 -0.940805
16.4513 53.6618 -114.464 0.00954729 0.337603 -0.94124
18.4937 53.6554 -114.445 0.00969679 0.337558 -0.941255
20.5281 53.6496 -114.428 0.00518507 0.341106 -0.94001
22.5834 53.6468 -114.419 0.00469577 0.351967 -0.936001
24.6232 53.6437 -114.41 0.00439123 0.348768 -0.937199
26.7957 53.6371 -114.39 0.0162947 0.347985 -0.937359
27.1613 53.6348 -114.384 0.0197037 0.345106 -0.938357
19.3135 56.8277 -113.296 0.0128625 0.341027 -0.939966
17.2984 56.8348 -113.317 0.00968993 0.337566 -0.941252
15.2792 56.8386 -113.328 0.000124588 0.338789 -0.940862
13.2054 56.8367 -113.324 -0.00247731 0.339255 -0.940691
11.1886 56.8317 -113.31 -0.0140104 0.333493 -0.942649
9.17394 56.8225 -113.285 -0.0127107 0.331199 -0.943475
8.14545 56.8181 -113.273 -0.0126646 0.331228 -0.943466
7.99103 56.8174 -113.271 -0.0126838 0.33122 -0.943468
