-13.2771 14.6814 -144.7 0.747467 0.259404 -0.611557
-12.7251 12.7524 -144.844 0.746991 0.259857 -0.611947
-12.0844 10.8053 -144.939 0.698736 0.285908 -0.655763
-11.364 8.92678 -145.085 0.648383 0.307787 -0.696219
-10.6942 6.98677 -145.18 0.650731 0.226914 -0.72461
-9.87148 5.26442 -145.061 0.554261 0.243015 -0.796077
-8.09362 5.21455 -144.031 0.486948 0.292716 -0.822918
-6.1888 5.18007 -143.031 0.436354 0.29231 -0.850932
-4.34767 5.16926 -142.038 0.458349 0.275186 -0.845097
-2.51841 5.36021 -141.194 0.297731 0.257302 -0.919317
-0.586307 5.27292 -140.599 0.294947 0.256926 -0.920324
1.34507 5.07422 -140.104 0.176305 0.32075 -0.930611
3.46765 5.05404 -139.775 0.168346 0.375811 -0.911277
5.482 5.01246 -139.42 0.169429 0.377084 -0.91055
7.54351 4.97395 -139.03 0.194543 0.40514 -0.893316
9.52877 4.95409 -138.61 0.178185 0.406869 -0.89594
11.5332 4.97026 -138.263 0.144595 0.409268 -0.900884
13.6893 4.97616 -137.975 0.0969837 0.407644 -0.907976
15.8058 4.96935 -137.751 0.0973664 0.408577 -0.907516
17.8873 4.99911 -137.521 0.0847723 0.403625 -0.910989
20.0696 4.9709 -137.332 0.085029 0.401545 -0.911884
22.0743 4.94738 -137.158 0.0808994 0.400289 -0.912811
24.1454 4.95308 -136.987 0.0729562 0.399423 -0.913859
26.2755 4.96799 -136.812 0.0710993 0.395143 -0.915863
28.3529 4.94966 -136.656 0.0721725 0.393032 -0.916688
30.3798 4.98269 -136.49 0.064338 0.392092 -0.917673
32.4822 5.06008 -136.31 0.0648044 0.392143 -0.917619
34.5518 5.07785 -136.152 0.0673071 0.389753 -0.918457
36.6165 5.02393 -136.025 0.0656241 0.386336 -0.92002
38.714 5.0595 -135.866 0.0614829 0.384607 -0.921031
40.8038 5.02557 -135.74 0.0627376 0.382263 -0.921921
42.9832 5.04105 -135.585 0.0629448 0.382263 -0.921907
45.0739 5.02923 -135.449 0.0592325 0.380974 -0.922686
47.2424 5.01855 -135.318 0.05607 0.3801 -0.923244
49.2549 4.99245 -135.218 0.0463991 0.380684 -0.92354
51.4643 5.00313 -135.104 0.0449475 0.380319 -0.923762
53.4822 5.01059 -135.01 0.0407446 0.383155 -0.922785
55.6954 5.005 -134.914 0.0410599 0.383772 -0.922515
57.8244 4.97893 -134.835 0.0357691 0.389608 -0.920286
59.6367 5.60375 -134.497 0.0380705 0.391042 -0.919585
61.1019 7.11609 -133.793 0.0423071 0.389579 -0.920021
62.4532 8.53315 -133.127 0.0455235 0.390779 -0.919358
63.8063 9.93243 -132.465 0.0484304 0.388742 -0.920073
65.1932 11.3212 -131.8 0.0558604 0.387486 -0.920181
66.6073 12.7662 -131.103 0.0581413 0.387565 -0.920007
67.905 14.2395 -130.395 0.0622279 0.389348 -0.918986
69.1497 15.7374 -129.676 0.0640124 0.386514 -0.920059
70.4986 17.2277 -128.956 0.0734643 0.384509 -0.920194
71.7631 18.6812 -128.247 0.073959 0.384656 -0.920092
72.0143 20.223 -127.582 0.073865 0.384632 -0.92011
70.4659 21.5897 -127.135 0.073306 0.384749 -0.920106
68.9259 22.9657 -126.685 0.0736948 0.381445 -0.921449
67.3269 24.3322 -126.251 0.073653 0.378976 -0.922471
65.7683 25.7152 -125.802 0.0634849 0.37531 -0.924723
64.1357 27.1038 -125.347 0.0607068 0.375175 -0.924964
62.6086 28.3455 -124.937 0.0537667 0.375264 -0.925357
61.0768 29.6896 -124.478 0.0510172 0.37553 -0.925405
59.5531 30.9827 -124.041 0.0558592 0.375667 -0.92507
57.9981 32.2427 -123.628 0.0605288 0.373464 -0.925668
56.4067 33.4479 -123.246 0.0607715 0.373263 -0.925733
54.6681 34.6992 -122.855 0.0602904 0.374204 -0.925384
53.0606 35.8366 -122.503 0.0664008 0.371518 -0.926048
51.3593 36.9541 -122.198 0.0752579 0.363534 -0.928536
49.5869 38.1019 -121.892 0.0748575 0.363424 -0.928611
47.9576 39.2564 -121.57 0.0677711 0.352878 -0.933212
46.1676 40.4886 -121.234 0.0657282 0.350932 -0.934091
44.3486 41.6825 -120.911 0.0620258 0.352454 -0.933771
42.6996 42.8401 -120.563 0.0436808 0.352133 -0.93493
40.9884 43.8827 -120.251 0.043805 0.351982 -0.934981
39.1507 44.8193 -119.986 0.0450715 0.350849 -0.935347
37.3586 45.7593 -119.72 0.0445357 0.351163 -0.935255
35.5791 46.6903 -119.439 0.0281548 0.352795 -0.935277
33.7283 47.686 -119.109 0.0216725 0.356021 -0.934227
31.9209 48.6261 -118.798 0.0267319 0.350397 -0.936219
30.1912 49.6196 -118.48 0.0278156 0.347645 -0.937213
28.4518 50.5892 -118.166 0.0129106 0.347172 -0.937712
26.5927 51.5812 -117.813 0.00349838 0.346792 -0.937936
24.6395 52.2711 -117.565 0.0034879 0.346814 -0.937927
22.6841 52.8386 -117.362 0.00322786 0.347079 -0.93783
20.846 53.5886 -117.088 -0.00107376 0.348262 -0.937396
18.9751 54.3875 -116.784 -0.00376901 0.348453 -0.937319
16.9753 55.1055 -116.521 0.00489993 0.340265 -0.940317
15.0619 55.7351 -116.3 -0.00178025 0.339379 -0.940648
13.1661 56.3994 -116.046 -0.00688163 0.338979 -0.940769
11.1675 56.9138 -115.845 -0.0140631 0.329569 -0.944027
9.19175 57.2805 -115.682 -0.0166225 0.331844 -0.943188
7.2069 57.5813 -115.541 -0.0160979 0.333953 -0.942452
5.44866 57.264 -115.624 -0.0160387 0.333485 -0.942619
5.43116 55.3552 -116.292 -0.0282157 0.32671 -0.944703
5.42452 53.3356 -117.001 -0.018984 0.341924 -0.939536
5.43013 51.4306 -117.706 -0.0195599 0.347966 -0.937303
5.42618 49.3583 -118.475 -0.0202375 0.347583 -0.937431
5.4191 47.471 -119.17 -0.0261693 0.344072 -0.938579
5.41314 45.4575 -119.905 -0.0286771 0.342495 -0.939082
5.39328 43.5495 -120.601 -0.0311668 0.342781 -0.938898
5.3897 41.6166 -121.321 -0.0507245 0.359726 -0.931648
5.39719 39.6604 -122.089 -0.0615962 0.36612 -0.928527
5.40126 37.6412 -122.885 -0.0616136 0.366094 -0.928536
5.37644 35.722 -123.653 -0.0679672 0.390998 -0.917878
5.43656 33.7759 -124.501 -0.0640667 0.40023 -0.914171
5.43279 31.8804 -125.385 -0.0352152 0.446115 -0.894282
5.41085 30.0149 -126.335 -0.0392197 0.461801 -0.886116
5.39599 28.1559 -127.299 -0.0262045 0.448167 -0.893566
5.4239 26.3285 -128.215 0.014464 0.443026 -0.896392
5.38 24.4784 -129.188 0.0586285 0.485797 -0.872103
5.37525 22.6678 -130.2 0.0608852 0.485201 -0.87228
5.32251 20.7807 -131.252 0.0849484 0.476496 -0.875063
5.15105 18.982 -132.26 0.115281 0.48354 -0.867677
4.41847 17.3042 -133.401 0.19816 0.488259 -0.849898
3.1087 16.0806 -134.422 0.261071 0.497318 -0.827105
1.33679 15.4449 -135.458 0.301215 0.502872 -0.810179
-0.581625 15.2502 -136.287 0.293659 0.505605 -0.811251
-2.40082 15.1401 -137.177 0.429638 0.413778 -0.802385
-4.22947 15.1578 -138.098 0.414869 0.369161 -0.831627
-6.06806 15.1003 -139.039 0.415113 0.366566 -0.832648
-7.88429 15.0274 -139.977 0.416633 0.364847 -0.832648
-9.60126 14.9678 -140.998 0.536438 0.363276 -0.761748
-11.2691 14.8525 -142.254 0.642397 0.285908 -0.707337
-12.5642 14.7886 -143.783 0.746728 0.259273 -0.612513
-13.2541 14.7064 -144.661 0.747463 0.259549 -0.611501
-14.0234 18.2012 -144.071 0.783189 0.253407 -0.567802
-15.2649 18.2191 -145.771 0.782449 0.248523 -0.570973
-16.4358 18.073 -147.42 0.780496 0.224824 -0.583335
-15.9673 16.1253 -147.541 0.778835 0.223495 -0.58606
-15.4136 14.1414 -147.563 0.773368 0.234481 -0.588881
-14.8423 12.2047 -147.635 0.745794 0.254716 -0.615543
-14.2056 10.2229 -147.689 0.737694 0.246873 -0.62838
-13.6196 8.28573 -147.776 0.731772 0.263622 -0.628493
-12.9169 6.22751 -147.826 0.734836 0.265129 -0.624278
-12.2491 4.14431 -147.905 0.763486 0.246902 -0.596765
-11.6373 2.22557 -147.919 0.784178 0.250294 -0.567819
-10.3737 1.80816 -146.548 0.581077 0.280644 -0.763929
-8.50023 1.80619 -145.415 0.457892 0.281668 -0.843205
-6.7351 1.78589 -144.462 0.462457 0.286623 -0.839036
-4.92233 1.77911 -143.46 0.462256 0.281674 -0.840817
-3.08992 1.7748 -142.466 0.432413 0.272022 -0.859664
-1.18832 1.8307 -141.796 0.228624 0.3202 -0.919349
0.80407 1.73324 -141.58 0.105202 0.405622 -0.907966
2.87412 1.7349 -141.253 0.168349 0.37584 -0.911264
4.96424 1.70532 -140.88 0.166632 0.378398 -0.910521
7.01522 1.69216 -140.51 0.165962 0.381114 -0.909509
9.05168 1.70397 -140.135 0.166233 0.386237 -0.907296
11.0731 1.72333 -139.735 0.169628 0.373862 -0.911841
13.0794 1.72054 -139.447 0.0964347 0.39061 -0.915491
15.0889 1.71632 -139.241 0.0934861 0.395416 -0.913731
17.1122 1.71132 -139.041 0.0906959 0.398072 -0.91286
19.3469 1.69016 -138.829 0.0901783 0.397577 -0.913127
21.4287 1.71069 -138.626 0.0832101 0.393154 -0.9157
23.4426 1.69739 -138.459 0.0752271 0.394911 -0.915634
25.5347 1.69758 -138.286 0.0757713 0.395901 -0.915162
27.6237 1.69602 -138.114 0.0757711 0.395885 -0.915169
29.7574 1.69371 -137.943 0.07033 0.393117 -0.916795
31.8303 1.73111 -137.775 0.0677865 0.390282 -0.918196
33.9474 1.73884 -137.614 0.0704 0.387155 -0.919323
36.1004 1.74614 -137.441 0.0756168 0.376739 -0.923228
38.1086 1.71028 -137.292 0.0714067 0.375952 -0.923881
40.1355 1.72843 -137.14 0.0633882 0.377096 -0.924002
42.1511 1.73361 -137.001 0.0625377 0.376768 -0.924194
44.2442 1.72342 -136.863 0.0625046 0.376688 -0.924229
46.2881 1.73805 -136.722 0.0594161 0.375167 -0.925051
48.4653 1.70826 -136.609 0.0483632 0.378334 -0.924405
50.6084 1.71598 -136.497 0.0430762 0.37814 -0.924745
52.6476 1.72468 -136.404 0.0397529 0.377334 -0.925224
54.7022 1.72349 -136.314 0.0381964 0.374905 -0.926276
56.7545 1.76201 -136.227 0.0304453 0.382562 -0.923426
58.787 1.71573 -136.177 0.031639 0.386543 -0.921728
60.7624 1.86307 -136.045 0.0336191 0.388942 -0.920649
62.1341 3.19484 -135.423 0.0395497 0.393841 -0.918327
63.5538 4.67975 -134.722 0.0405643 0.394272 -0.918098
64.8906 6.08006 -134.055 0.0468579 0.39366 -0.918061
66.2247 7.43437 -133.406 0.0485279 0.394178 -0.917752
67.6369 8.85199 -132.712 0.0530162 0.397714 -0.915976
68.9585 10.2141 -132.039 0.0588908 0.397255 -0.915817
70.3211 11.7196 -131.303 0.0597549 0.394017 -0.917158
71.5373 13.1576 -130.61 0.0632863 0.391665 -0.917926
72.8414 14.5788 -129.901 0.0702166 0.394145 -0.916362
74.1896 16.1085 -129.142 0.0703861 0.393302 -0.916711
75.4293 17.523 -128.439 0.0755428 0.391579 -0.917037
76.5765 19.0293 -127.707 0.0771866 0.386583 -0.919019
76.4673 20.623 -127.044 0.0778319 0.387833 -0.918437
75.0444 22.0116 -126.58 0.0810136 0.388773 -0.917765
73.5291 23.3394 -126.155 0.0814059 0.383371 -0.92
71.9906 24.688 -125.729 0.0787416 0.381999 -0.920802
70.4458 26.0429 -125.299 0.0747873 0.379096 -0.92233
68.8587 27.4055 -124.867 0.0738937 0.378811 -0.922519
67.3106 28.7539 -124.437 0.0738534 0.378827 -0.922516
65.8176 30.0482 -124.025 0.0737666 0.378702 -0.922574
64.3304 31.3394 -123.611 0.0693532 0.375782 -0.924109
62.8215 32.6496 -123.179 0.0542402 0.376696 -0.924748
61.2633 33.9396 -122.741 0.0504354 0.375972 -0.925258
59.7272 35.1699 -122.334 0.0599597 0.374167 -0.925421
57.9972 36.4431 -121.933 0.0602955 0.374239 -0.92537
56.3675 37.6116 -121.566 0.0602797 0.374235 -0.925373
54.6611 38.8355 -121.194 0.0745597 0.364311 -0.928288
53.0035 39.919 -120.909 0.0768671 0.357555 -0.930723
51.2717 41.0699 -120.612 0.0765796 0.355275 -0.93162
49.5356 42.2601 -120.3 0.0765535 0.355256 -0.931629
47.8235 43.407 -120.004 0.0765442 0.35522 -0.931644
46.1437 44.5377 -119.709 0.0720559 0.354336 -0.932338
44.4898 45.6621 -119.406 0.0576591 0.35267 -0.93397
42.7929 46.7311 -119.094 0.0445665 0.351472 -0.935137
40.8784 47.6874 -118.827 0.0450835 0.350852 -0.935345
39.1065 48.6225 -118.562 0.0450946 0.350852 -0.935344
37.2845 49.5522 -118.3 0.0394024 0.349653 -0.93605
35.3491 50.6026 -117.963 0.0259454 0.351171 -0.935949
33.5694 51.5972 -117.646 0.0277924 0.347651 -0.937212
31.762 52.5566 -117.344 0.0277942 0.347624 -0.937222
30.0199 53.5329 -117.033 0.027794 0.347633 -0.937219
28.1659 54.5381 -116.71 0.0145049 0.347889 -0.937405
26.1986 55.2784 -116.447 0.00325613 0.347032 -0.937848
24.263 55.9699 -116.198 0.00318022 0.347119 -0.937816
22.3685 56.7066 -115.931 0.00256105 0.34722 -0.93778
20.4761 57.4317 -115.663 0.0029968 0.343416 -0.939179
18.4197 58.1396 -115.422 0.00589337 0.329527 -0.944124
16.4202 58.8026 -115.21 0.00838533 0.325897 -0.945368
14.4575 59.5038 -114.983 0.00263236 0.32052 -0.947238
12.4587 60.0514 -114.781 -0.0156179 0.327689 -0.944654
10.2818 60.4497 -114.599 -0.0196506 0.328039 -0.94446
8.28734 60.7721 -114.446 -0.0196488 0.328048 -0.944457
6.30036 61.0589 -114.305 -0.0184854 0.328861 -0.944197
4.31756 61.3699 -114.16 -0.0152839 0.330989 -0.943511
2.25355 61.4787 -114.119 0.0200159 0.314115 -0.949165
1.86086 59.7239 -114.727 0.00100441 0.327418 -0.944878
1.90823 57.8208 -115.353 -0.00584176 0.302694 -0.95307
1.90912 55.9032 -115.995 -0.0291256 0.325976 -0.944929
1.87881 53.9263 -116.705 -0.0218565 0.345961 -0.937994
1.88333 51.9308 -117.438 -0.0282513 0.341713 -0.939379
1.88263 49.9692 -118.152 -0.0291627 0.341962 -0.939261
1.87247 48.0894 -118.837 -0.028911 0.34223 -0.939171
1.85684 46.1719 -119.536 -0.0287017 0.342648 -0.939025
1.88309 44.1523 -120.273 -0.0287252 0.342658 -0.939021
1.86884 42.1533 -121.002 -0.028711 0.342634 -0.93903
1.86799 40.2713 -121.689 -0.0287477 0.342685 -0.93901
1.86287 38.3702 -122.387 -0.0350918 0.349044 -0.936438
1.83169 36.4228 -123.129 -0.0605065 0.36663 -0.928397
1.89658 34.5258 -123.935 -0.0453482 0.415889 -0.908232
1.88734 32.6818 -124.846 -0.0352281 0.44612 -0.894279
1.88195 30.8264 -125.771 -0.0352273 0.44611 -0.894285
1.85686 28.8807 -126.77 -0.0270753 0.472339 -0.880897
1.84061 27.0809 -127.823 0.0339551 0.533262 -0.845268
1.84254 25.2343 -128.954 0.0493597 0.519093 -0.853291
1.82403 23.4078 -130.142 0.13811 0.551896 -0.82239
1.80686 21.6809 -131.276 0.201845 0.536485 -0.819337
1.75216 19.945 -132.413 0.226289 0.524375 -0.820866
0.829601 18.6199 -133.573 0.278121 0.528431 -0.802128
-1.00128 18.3532 -134.505 0.411776 0.445338 -0.794605
-2.77808 18.3112 -135.552 0.448745 0.451928 -0.770967
-4.52089 18.3742 -136.529 0.448739 0.451939 -0.770963
-6.2589 18.3422 -137.559 0.447061 0.450941 -0.77252
-8.0788 18.3408 -138.578 0.432116 0.404174 -0.806021
-9.95979 18.2744 -139.578 0.439865 0.387407 -0.810207
-11.5397 18.2094 -140.825 0.730144 0.307368 -0.610258
-12.8857 18.2117 -142.528 0.765325 0.298413 -0.570287
-14.0233 18.2012 -144.071 0.78319 0.253409 -0.567801
-8.24652 13.3269 -140.885 0.44602 0.349163 -0.824106
-6.23402 12.8779 -140.064 0.417387 0.351317 -0.838072
-4.25372 12.4586 -139.254 0.417415 0.35122 -0.838099
-2.30321 12.0821 -138.522 0.313158 0.404673 -0.859169
-0.273381 11.7922 -137.968 0.292682 0.415507 -0.861215
1.75461 11.5108 -137.416 0.291439 0.414783 -0.861985
3.82304 11.2282 -136.856 0.278831 0.426875 -0.86025
5.85314 11.0308 -136.455 0.172197 0.466037 -0.867847
7.83187 10.8836 -136.142 0.170335 0.461363 -0.870707
9.85077 10.7532 -135.86 0.128873 0.455539 -0.880838
11.8744 10.6422 -135.612 0.130746 0.442953 -0.88696
13.925 10.5609 -135.423 0.0897473 0.420524 -0.902832
15.9433 10.4863 -135.244 0.0926201 0.410777 -0.907019
17.9988 10.4223 -135.088 0.0803063 0.409998 -0.908544
20.1507 10.3585 -134.931 0.0720745 0.402253 -0.912687
22.166 10.3077 -134.802 0.0684148 0.401639 -0.913239
24.2553 10.253 -134.665 0.0698245 0.398795 -0.914378
26.2639 10.2043 -134.542 0.0646398 0.397284 -0.915416
28.2788 10.1575 -134.423 0.0601043 0.392692 -0.917704
30.3865 10.1125 -134.309 0.0604696 0.387735 -0.919785
32.4294 10.0663 -134.193 0.0611146 0.387119 -0.920002
34.4775 10.0198 -134.076 0.0615095 0.386799 -0.920111
36.4851 9.97425 -133.961 0.0595689 0.384627 -0.921148
38.5943 9.92866 -133.846 0.0592025 0.38388 -0.921483
40.6329 9.88363 -133.732 0.0607313 0.381898 -0.922207
42.7417 9.83654 -133.613 0.0599329 0.381445 -0.922447
44.8874 9.78956 -133.494 0.0593042 0.381406 -0.922503
47.0464 9.74449 -133.381 0.0529139 0.381181 -0.922985
49.1309 9.70412 -133.279 0.0500853 0.381175 -0.923145
51.16 9.66856 -133.189 0.0470623 0.382633 -0.922701
53.3497 9.63065 -133.095 0.0439625 0.383115 -0.922654
55.4073 9.59756 -133.012 0.0440812 0.38597 -0.921458
57.585 9.56201 -132.925 0.0409358 0.386042 -0.921573
59.6346 9.52959 -132.846 0.0424843 0.387259 -0.920992
60.9887 9.50589 -132.789 0.047275 0.388459 -0.920252
64.0546 12.6388 -131.31 0.0504197 0.388632 -0.920013
61.9893 12.6757 -131.398 0.0449429 0.387788 -0.920652
59.8911 12.7156 -131.495 0.0534242 0.384614 -0.92153
57.7286 12.753 -131.585 0.0422324 0.382313 -0.923067
55.6189 12.7902 -131.676 0.048434 0.37845 -0.924354
53.5452 12.827 -131.767 0.0463296 0.376908 -0.925091
51.3918 12.8643 -131.859 0.0469116 0.375995 -0.925433
49.3123 12.9026 -131.954 0.0531442 0.375618 -0.92525
47.2695 12.9436 -132.056 0.0538944 0.375861 -0.925107
45.1475 12.986 -132.162 0.055791 0.377539 -0.924312
42.9931 13.0328 -132.279 0.058786 0.378922 -0.92356
40.9024 13.0779 -132.392 0.0577149 0.38008 -0.923151
38.9025 13.1213 -132.5 0.0586351 0.381282 -0.922598
36.8724 13.1658 -132.61 0.0585065 0.381304 -0.922597
34.8365 13.2084 -132.716 0.0543597 0.384054 -0.921709
32.7465 13.2537 -132.828 0.0608616 0.387993 -0.919651
30.6721 13.2995 -132.94 0.0548535 0.391164 -0.918685
28.5646 13.3427 -133.046 0.0538668 0.391741 -0.918497
26.4696 13.3879 -133.156 0.06207 0.393436 -0.917254
24.4344 13.4363 -133.273 0.0610741 0.395718 -0.916339
22.3178 13.4842 -133.387 0.0594173 0.40116 -0.914079
20.2858 13.5347 -133.506 0.067064 0.407835 -0.91059
18.221 13.5934 -133.643 0.0762818 0.409412 -0.909155
16.0831 13.6553 -133.781 0.0707801 0.419286 -0.905091
13.9845 13.7256 -133.933 0.0824458 0.420925 -0.903341
11.9179 13.7944 -134.075 0.074677 0.432023 -0.898765
9.92524 13.8838 -134.254 0.112152 0.435162 -0.89334
7.92617 13.9993 -134.473 0.1463 0.456208 -0.877764
5.94743 14.1591 -134.763 0.172915 0.46912 -0.866041
3.99064 14.3792 -135.147 0.28579 0.490415 -0.823297
3.63363 14.4319 -135.238 0.287367 0.493639 -0.820817
6.51085 17.23 -133.035 0.116939 0.461946 -0.879165
8.5332 17.1102 -132.846 0.112084 0.450054 -0.885939
10.5743 17.0029 -132.658 0.0970211 0.440091 -0.892696
12.6376 16.9247 -132.521 0.0678218 0.432995 -0.898841
14.7354 16.8567 -132.393 0.0660045 0.432998 -0.898975
16.8473 16.7961 -132.27 0.0641402 0.417525 -0.906399
18.8665 16.743 -132.159 0.0558334 0.414125 -0.908506
20.8881 16.7045 -132.077 0.0551265 0.397553 -0.915922
22.99 16.6556 -131.968 0.0565118 0.396927 -0.916109
25.0784 16.6079 -131.86 0.0557606 0.396111 -0.916508
27.2299 16.5613 -131.752 0.0533709 0.390303 -0.919138
29.2997 16.5182 -131.65 0.0532277 0.389681 -0.919411
31.3247 16.4771 -131.553 0.0476204 0.386655 -0.920994
33.4417 16.4374 -131.457 0.0530572 0.383304 -0.922097
35.4415 16.3964 -131.357 0.0539959 0.38287 -0.922223
37.5714 16.3525 -131.249 0.0563471 0.3806 -0.923022
39.6068 16.3089 -131.142 0.0567494 0.37911 -0.92361
41.6319 16.2658 -131.035 0.0564223 0.378961 -0.923691
43.6735 16.2223 -130.928 0.0564348 0.377973 -0.924095
45.7201 16.1818 -130.828 0.0520877 0.375501 -0.925357
47.7583 16.1423 -130.73 0.0510463 0.374408 -0.925858
49.8479 16.1023 -130.631 0.0508788 0.374253 -0.92593
51.9701 16.0631 -130.535 0.0484325 0.374224 -0.926073
54.0137 16.0249 -130.441 0.0522491 0.376006 -0.925143
56.0418 15.9848 -130.343 0.0517325 0.377526 -0.924553
58.0965 15.9456 -130.247 0.0476206 0.380208 -0.923674
60.2716 15.9024 -130.143 0.0547499 0.383575 -0.921885
62.4146 15.8596 -130.04 0.0499221 0.386856 -0.920788
64.435 15.8199 -129.944 0.0520562 0.388093 -0.920149
66.5211 15.7755 -129.839 0.0607885 0.387128 -0.92002
66.8149 15.7686 -129.822 0.0617658 0.386317 -0.920296
69.4711 18.9011 -128.338 0.0723688 0.383272 -0.920796
67.4087 18.9535 -128.463 0.0628296 0.380583 -0.92261
65.2956 19.0039 -128.584 0.0574783 0.380779 -0.922878
63.258 19.0442 -128.68 0.0499662 0.377661 -0.924595
61.2436 19.0848 -128.779 0.0543078 0.376707 -0.924739
59.2403 19.1265 -128.88 0.0550052 0.376724 -0.924691
57.1636 19.1697 -128.985 0.053042 0.375537 -0.925288
55.0389 19.2122 -129.089 0.0526004 0.375598 -0.925289
53.0347 19.2521 -129.186 0.0523412 0.375654 -0.925281
51.0206 19.2907 -129.28 0.0486709 0.374224 -0.92606
48.9572 19.3295 -129.376 0.0504364 0.374426 -0.925884
46.7752 19.3708 -129.478 0.0505997 0.374205 -0.925964
44.6955 19.4111 -129.577 0.0516326 0.37506 -0.925561
42.6555 19.4514 -129.676 0.0559168 0.376296 -0.924811
40.426 19.499 -129.792 0.0563881 0.376377 -0.924749
38.3458 19.5428 -129.899 0.0550684 0.377501 -0.92437
36.2536 19.5827 -129.996 0.0464412 0.378103 -0.924598
34.2536 19.6208 -130.088 0.052781 0.38251 -0.922443
32.1758 19.6599 -130.182 0.045373 0.384773 -0.921896
30.1593 19.6957 -130.266 0.0453058 0.384778 -0.921896
28.1598 19.7335 -130.354 0.0532918 0.389758 -0.919374
26.1187 19.775 -130.448 0.0445128 0.39077 -0.919411
23.9517 19.8171 -130.54 0.0548831 0.395908 -0.916648
21.8893 19.8641 -130.641 0.0452903 0.400103 -0.91535
19.7648 19.8999 -130.714 0.0361794 0.406267 -0.913038
17.6998 19.935 -130.781 0.0403404 0.409575 -0.911384
15.5487 19.986 -130.876 0.0446502 0.420907 -0.906004
13.3471 20.0348 -130.96 0.0438904 0.421107 -0.905948
11.1242 20.1028 -131.073 0.0694375 0.442292 -0.894179
9.12189 20.1826 -131.201 0.0797169 0.443852 -0.892547
7.12574 20.2743 -131.339 0.0860413 0.453845 -0.886917
7.14414 23.3352 -129.716 0.0531902 0.484612 -0.87311
9.14649 23.2791 -129.644 0.0318874 0.448936 -0.892995
11.1551 23.2303 -129.574 0.0457831 0.428301 -0.902476
13.3166 23.1777 -129.489 0.0457938 0.428321 -0.902465
15.3759 23.1357 -129.42 0.02656 0.414189 -0.909803
17.4157 23.1091 -129.381 0.0280175 0.406789 -0.913092
19.416 23.0762 -129.32 0.0374042 0.402404 -0.914698
21.4926 23.0412 -129.251 0.0372991 0.402783 -0.914535
23.5064 23.0084 -129.184 0.0370744 0.391823 -0.919293
25.6102 22.9745 -129.112 0.0387381 0.382945 -0.922959
27.791 22.9375 -129.032 0.0446061 0.382319 -0.922953
29.8265 22.9004 -128.948 0.0449716 0.382333 -0.92293
31.9114 22.8635 -128.863 0.0409046 0.37879 -0.924578
34.0441 22.8312 -128.787 0.0428629 0.37243 -0.92707
36.1363 22.7915 -128.693 0.0476874 0.375565 -0.925568
38.2008 22.7523 -128.598 0.053899 0.377394 -0.924483
40.2552 22.7092 -128.493 0.0550228 0.377405 -0.924412
42.2823 22.6674 -128.391 0.0541488 0.374328 -0.925714
44.318 22.6281 -128.295 0.0483798 0.369873 -0.927822
46.5062 22.5868 -128.194 0.0502954 0.369617 -0.927822
48.522 22.5488 -128.101 0.0495741 0.370277 -0.927598
50.5374 22.5102 -128.006 0.0533885 0.37101 -0.927093
52.5402 22.4699 -127.908 0.0523563 0.375667 -0.925275
54.6102 22.4289 -127.807 0.0524191 0.37568 -0.925266
56.625 22.3886 -127.709 0.0535259 0.375928 -0.925101
58.6895 22.3449 -127.602 0.0564884 0.376423 -0.924724
60.7044 22.3027 -127.5 0.0541271 0.376718 -0.924745
62.8001 22.2597 -127.396 0.0534081 0.376523 -0.924867
64.8258 22.2164 -127.29 0.060708 0.380326 -0.922858
66.8224 22.1689 -127.176 0.0635778 0.380643 -0.922534
67.2493 22.1582 -127.15 0.0668237 0.38133 -0.922021
63.4204 25.4554 -126.061 0.0559349 0.374532 -0.925525
61.218 25.4998 -126.169 0.0527304 0.375316 -0.925396
59.1363 25.5425 -126.274 0.0562317 0.376297 -0.924791
56.9844 25.5886 -126.386 0.0563521 0.376473 -0.924712
54.8792 25.6321 -126.492 0.0537208 0.373179 -0.926203
52.8004 25.6765 -126.601 0.0575982 0.37014 -0.927189
50.6673 25.7229 -126.715 0.0573977 0.370168 -0.92719
48.6666 25.7636 -126.815 0.0528098 0.36995 -0.927549
46.4734 25.8067 -126.921 0.0511731 0.368356 -0.928276
44.4305 25.8454 -127.015 0.049597 0.367335 -0.928766
42.3883 25.8847 -127.111 0.051635 0.366865 -0.92884
40.2676 25.9267 -127.213 0.052332 0.367103 -0.928707
38.2445 25.9665 -127.309 0.0482757 0.367291 -0.928852
36.1674 26.0036 -127.399 0.0480486 0.371745 -0.92709
34.1694 26.0422 -127.491 0.0475622 0.372991 -0.926615
32.1198 26.0721 -127.559 0.0329255 0.372768 -0.92734
30.0953 26.0993 -127.62 0.0337907 0.373624 -0.926964
28.0942 26.1318 -127.694 0.0448128 0.38221 -0.922988
26.0445 26.168 -127.774 0.0372541 0.381425 -0.923649
23.9789 26.1936 -127.826 0.0169565 0.389207 -0.920994
21.8665 26.2111 -127.857 0.0179828 0.391417 -0.920038
19.8295 26.2392 -127.912 0.0362393 0.402819 -0.914562
17.6497 26.2672 -127.961 0.0196518 0.409242 -0.912214
15.6182 26.2901 -127.995 0.0206798 0.40974 -0.911968
13.5128 26.3168 -128.033 0.0221743 0.410572 -0.911558
11.4198 26.3499 -128.082 0.0396441 0.425163 -0.904248
9.272 26.3895 -128.139 0.0135319 0.433464 -0.901069
7.34503 26.4109 -128.153 0.0109214 0.433929 -0.900881
7.34027 29.5114 -126.647 -0.00205758 0.436805 -0.899554
9.40895 29.4981 -126.641 -0.00372068 0.431497 -0.902107
11.4428 29.4998 -126.665 -0.0108533 0.40345 -0.914937
13.6482 29.4798 -126.641 0.0196721 0.397225 -0.917511
15.7195 29.4565 -126.605 0.0221211 0.397725 -0.917238
17.8048 29.4332 -126.567 0.0188301 0.391183 -0.92012
19.8188 29.4211 -126.552 0.00577482 0.380113 -0.924922
21.8292 29.4045 -126.524 0.0203472 0.375422 -0.92663
23.8948 29.3852 -126.487 0.019779 0.37728 -0.925888
25.9445 29.3667 -126.451 0.0230601 0.37776 -0.925616
27.9772 29.3401 -126.394 0.033344 0.370766 -0.928128
29.9877 29.3126 -126.333 0.0328028 0.371366 -0.927907
31.9907 29.2858 -126.272 0.032887 0.372664 -0.927384
34.0172 29.2574 -126.207 0.0437591 0.370484 -0.927808
36.0317 29.2217 -126.122 0.0453087 0.369615 -0.92808
38.128 29.1852 -126.034 0.0452949 0.369615 -0.92808
40.1478 29.1489 -125.946 0.0509388 0.366797 -0.928906
42.1558 29.1099 -125.852 0.0509247 0.363569 -0.930174
44.1973 29.0704 -125.755 0.0519022 0.362544 -0.93052
46.2785 29.0275 -125.649 0.0538927 0.368505 -0.928062
48.3911 28.9853 -125.546 0.0528317 0.369948 -0.927549
50.445 28.9435 -125.443 0.0557863 0.370164 -0.92729
52.465 28.8997 -125.335 0.058063 0.370648 -0.926957
54.4774 28.8546 -125.225 0.0605446 0.372933 -0.925881
56.5184 28.8078 -125.11 0.0605077 0.373275 -0.925745
58.668 28.7612 -124.996 0.0562784 0.375315 -0.925187
59.4924 28.7437 -124.953 0.0554205 0.374832 -0.925435
55.3607 32.0461 -123.88 0.0607499 0.373232 -0.925747
53.3175 32.093 -123.995 0.0607776 0.373256 -0.925735
51.2801 32.1396 -124.11 0.0608863 0.372884 -0.925878
49.2812 32.1857 -124.224 0.0598936 0.362897 -0.929902
47.2071 32.2314 -124.337 0.0589589 0.361684 -0.930435
45.1431 32.2769 -124.45 0.0590067 0.361641 -0.930448
43.064 32.3198 -124.556 0.0506684 0.361574 -0.930966
41.0413 32.3579 -124.649 0.0490348 0.3617 -0.931004
38.9153 32.397 -124.745 0.0472219 0.361306 -0.931251
36.788 32.4339 -124.834 0.0445547 0.360537 -0.93168
34.7568 32.4685 -124.917 0.0421733 0.35971 -0.932111
32.7264 32.4949 -124.978 0.0309294 0.363835 -0.93095
30.6957 32.5218 -125.04 0.0338815 0.365865 -0.930051
28.5478 32.5511 -125.107 0.0328028 0.366287 -0.929923
26.5353 32.5707 -125.148 0.0156039 0.373255 -0.927597
24.4691 32.5868 -125.179 0.0200562 0.374701 -0.926929
22.3577 32.6062 -125.218 0.020472 0.374914 -0.926834
20.292 32.6188 -125.238 0.00440372 0.379567 -0.925154
18.1069 32.627 -125.245 0.00440003 0.379588 -0.925145
16.0936 32.6352 -125.251 0.00504606 0.379917 -0.925007
13.9979 32.6435 -125.257 -0.00647567 0.387864 -0.921694
11.9154 32.637 -125.229 -0.0165859 0.410512 -0.911704
9.86446 32.6316 -125.201 -0.0128094 0.404962 -0.914244
7.72669 32.6189 -125.158 -0.0440496 0.407523 -0.912132
7.26886 32.6102 -125.136 -0.0595187 0.403615 -0.912991
7.18114 35.7719 -123.756 -0.0559197 0.38485 -0.921284
9.35676 35.7966 -123.824 -0.03122 0.366253 -0.929992
11.3822 35.8207 -123.892 -0.0354097 0.366343 -0.929806
13.4148 35.839 -123.947 -0.0199434 0.3753 -0.926689
15.4967 35.8419 -123.963 0.00586956 0.373292 -0.927695
17.5432 35.8315 -123.948 0.00988522 0.370946 -0.928602
19.5788 35.8208 -123.932 0.00965643 0.372675 -0.927912
21.6327 35.8129 -123.921 0.00522744 0.378696 -0.925507
23.6605 35.8004 -123.898 0.0174505 0.374352 -0.927122
25.7527 35.785 -123.868 0.0155779 0.373223 -0.927611
27.7574 35.771 -123.84 0.0155968 0.373226 -0.927609
29.7845 35.7534 -123.802 0.0325197 0.36611 -0.930003
31.8125 35.7281 -123.743 0.0283201 0.363444 -0.931186
33.9021 35.705 -123.689 0.0280409 0.363322 -0.931242
35.9187 35.6761 -123.621 0.0439306 0.360613 -0.93168
38.0502 35.6389 -123.53 0.0484967 0.361438 -0.931134
40.064 35.6021 -123.439 0.0485903 0.361984 -0.930917
42.0795 35.5652 -123.348 0.0486114 0.36199 -0.930914
44.1466 35.5257 -123.25 0.0565289 0.360515 -0.931039
46.2686 35.4795 -123.135 0.058601 0.361096 -0.930686
48.4142 35.4326 -123.018 0.059414 0.36131 -0.930551
50.5931 35.3765 -122.878 0.0751862 0.36352 -0.928547
50.6144 35.3759 -122.876 0.0752045 0.363521 -0.928546
45.7784 38.7238 -121.924 0.0655273 0.351125 -0.934033
43.769 38.7706 -122.043 0.0527625 0.348287 -0.935902
41.7069 38.8054 -122.129 0.0436716 0.352161 -0.93492
39.616 38.8393 -122.214 0.0440233 0.352811 -0.934659
37.4839 38.8754 -122.304 0.0463607 0.357069 -0.932927
35.4346 38.9102 -122.39 0.0403379 0.361357 -0.931555
33.3806 38.9341 -122.447 0.0298874 0.359831 -0.932539
31.2308 38.9596 -122.508 0.0292036 0.355855 -0.934085
29.1437 38.9792 -122.552 0.0165177 0.357938 -0.933599
27.0547 38.9937 -122.583 0.0160853 0.357866 -0.933635
24.9596 39.0083 -122.614 0.0149825 0.358483 -0.933416
22.9175 39.0174 -122.63 0.00410293 0.364484 -0.931201
20.9054 39.0239 -122.638 0.00865951 0.367665 -0.929918
18.7289 39.0341 -122.656 0.00983708 0.370881 -0.928628
16.6358 39.0446 -122.674 0.00954676 0.370936 -0.928609
14.5339 39.0471 -122.672 -0.0170655 0.375321 -0.926738
12.5314 39.0363 -122.638 -0.0178057 0.374583 -0.927022
10.4631 39.0219 -122.596 -0.0347313 0.368034 -0.929164
8.40938 38.9965 -122.527 -0.0375692 0.363946 -0.930662
7.3345 38.9801 -122.482 -0.0553885 0.366767 -0.928663
7.35218 42.1939 -121.218 -0.0527432 0.366516 -0.928916
9.50244 42.2213 -121.292 -0.0211288 0.370539 -0.928576
11.5181 42.2328 -121.327 -0.0177962 0.374643 -0.926998
13.7389 42.2451 -121.365 -0.0178075 0.374664 -0.92699
15.7628 42.2545 -121.395 -0.00707201 0.376079 -0.926561
17.7765 42.2485 -121.386 0.00591398 0.367178 -0.930132
19.9082 42.2431 -121.379 0.00381537 0.364683 -0.931124
21.9815 42.2382 -121.372 0.00380244 0.364668 -0.93113
24.0311 42.2332 -121.366 0.00378882 0.364688 -0.931122
26.0681 42.2275 -121.357 0.00746978 0.362337 -0.932017
28.1009 42.2151 -121.33 0.0161307 0.357863 -0.933635
30.1027 42.1997 -121.295 0.0229689 0.35864 -0.933193
32.1569 42.1802 -121.249 0.0289584 0.357101 -0.933617
34.2453 42.1562 -121.191 0.0293141 0.353791 -0.934865
36.2672 42.1321 -121.132 0.041 0.351634 -0.935239
38.2664 42.0995 -121.05 0.0439802 0.35195 -0.934985
40.2684 42.0673 -120.968 0.0436849 0.352181 -0.934912
40.8153 42.0586 -120.946 0.0436809 0.352165 -0.934918
34.4109 45.39 -119.964 0.0273462 0.353239 -0.935133
32.3667 45.4081 -120.009 0.0217078 0.356018 -0.934227
30.3259 45.4252 -120.05 0.0219578 0.356792 -0.933926
28.267 45.4414 -120.088 0.0119356 0.360994 -0.932492
26.2563 45.4473 -120.099 0.00300902 0.360628 -0.932705
24.1265 45.4533 -120.11 0.00603543 0.355204 -0.934769
22.0251 45.4596 -120.122 0.006523 0.354778 -0.934928
19.9971 45.4662 -120.133 0.00673988 0.352833 -0.935662
17.8195 45.4729 -120.146 0.00515744 0.354143 -0.935177
15.8122 45.4746 -120.146 -0.0073365 0.353473 -0.935416
13.6483 45.4617 -120.106 -0.0221519 0.353487 -0.935177
11.5165 45.4464 -120.062 -0.0219879 0.353864 -0.935038
9.38721 45.431 -120.017 -0.0208962 0.35427 -0.93491
7.33952 45.4165 -119.976 -0.0226813 0.344838 -0.938388
7.23457 45.4157 -119.974 -0.0239668 0.344874 -0.938343
7.25771 48.6549 -118.775 -0.0192858 0.348057 -0.937275
9.33545 48.6663 -118.808 -0.0151933 0.347728 -0.937472
11.407 48.6771 -118.839 -0.0192856 0.350051 -0.936532
13.473 48.6915 -118.881 -0.0221401 0.353466 -0.935185
15.5883 48.7024 -118.914 -0.00436105 0.356332 -0.934349
17.5917 48.7018 -118.916 -0.000727766 0.357006 -0.934102
19.6589 48.7001 -118.916 0.00341792 0.353728 -0.935342
21.7189 48.6941 -118.904 0.00655497 0.35252 -0.935781
23.7689 48.6886 -118.894 0.00500159 0.348823 -0.937175
25.8707 48.6843 -118.887 0.00348901 0.346793 -0.937935
27.8896 48.6804 -118.88 0.00377322 0.34717 -0.937795
28.3298 48.6787 -118.876 0.0142585 0.347643 -0.937519
20.2974 51.9346 -117.701 -0.00279981 0.348293 -0.937382
18.2093 51.9331 -117.694 -0.0036208 0.348763 -0.937204
16.2059 51.9315 -117.687 -0.00419385 0.3492 -0.937039
14.152 51.929 -117.677 -0.0109479 0.345728 -0.938271
12.104 51.9193 -117.647 -0.0150245 0.344952 -0.9385
9.9795 51.9086 -117.616 -0.0156859 0.344761 -0.93856
7.94152 51.898 -117.585 -0.0186119 0.347183 -0.937613
7.23494 51.8934 -117.572 -0.0194918 0.347978 -0.9373
7.28175 55.1465 -116.408 -0.0165289 0.333689 -0.942538
9.3533 55.1569 -116.439 -0.0156369 0.335447 -0.941929
11.2012 55.1665 -116.467 -0.0146838 0.336646 -0.941517
-10.4534 10.0297 -143.724 0.584971 0.315621 -0.747123
-8.63549 9.63054 -142.67 0.498662 0.321032 -0.805155
-6.86068 9.29917 -141.807 0.407216 0.328038 -0.852389
-5.00628 9.01772 -141.051 0.405104 0.332444 -0.851688
-3.08314 8.75739 -140.363 0.311361 0.341874 -0.886666
-1.05287 8.53235 -139.775 0.301514 0.333242 -0.893331
0.867145 8.31663 -139.223 0.286805 0.340146 -0.895569
2.90548 8.09172 -138.657 0.250583 0.366888 -0.89588
4.9824 7.92505 -138.243 0.198377 0.413171 -0.888783
7.07964 7.76289 -137.848 0.199681 0.41099 -0.889502
9.20542 7.60251 -137.455 0.179919 0.405736 -0.896107
11.1861 7.4925 -137.178 0.131068 0.405884 -0.904477
13.216 7.40052 -136.941 0.114342 0.40625 -0.90658
15.2476 7.32938 -136.749 0.0993851 0.407363 -0.907842
17.3101 7.26254 -136.571 0.0825505 0.405615 -0.910309
19.3868 7.20243 -136.409 0.0830695 0.403602 -0.911156
21.5218 7.14066 -136.244 0.07941 0.400842 -0.912699
23.6552 7.08396 -136.095 0.0724893 0.399053 -0.914058
25.6977 7.03291 -135.96 0.06605 0.397964 -0.91502
27.7174 6.98489 -135.833 0.0706816 0.393632 -0.916547
29.7752 6.93279 -135.699 0.0654418 0.392182 -0.917557
31.7877 6.88563 -135.579 0.0642661 0.391645 -0.917869
33.7838 6.84001 -135.46 0.062761 0.388292 -0.919397
35.8813 6.79199 -135.336 0.0634379 0.385145 -0.920673
37.922 6.74514 -135.215 0.0625669 0.384359 -0.921061
40.0047 6.69916 -135.097 0.0605759 0.384146 -0.921283
41.0697 6.67546 -135.036 0.0613222 0.383483 -0.92151
41.0987 6.67481 -135.035 0.0611844 0.383455 -0.921531
