-9.80044 14.549 -145.067 0.630904 0.384726 -0.673733
-8.951 12.5639 -145.294 0.573964 0.334317 -0.747446
-8.15495 10.6713 -145.567 0.485945 0.346899 -0.802196
-7.33791 8.8528 -145.82 0.512427 0.315939 -0.798499
-6.54283 6.96689 -146.064 0.481583 0.328248 -0.812607
-5.35256 5.50889 -145.967 0.438443 0.310788 -0.843313
-3.44864 5.48588 -144.951 0.457883 0.286779 -0.841487
-1.61802 5.51554 -144.077 0.317818 0.280612 -0.905676
0.379401 5.42996 -143.426 0.307441 0.280941 -0.909149
2.38496 5.35334 -142.853 0.174551 0.37458 -0.909752
4.46763 5.3209 -142.502 0.180956 0.38916 -0.903221
6.61855 5.27251 -142.05 0.204226 0.399572 -0.893663
8.71091 5.20893 -141.601 0.189785 0.406452 -0.893744
10.7858 5.28633 -141.174 0.158834 0.412053 -0.897209
12.7939 5.31451 -140.828 0.125861 0.410065 -0.903311
14.7909 5.29902 -140.588 0.10688 0.404873 -0.908105
16.9699 5.3422 -140.309 0.105653 0.405382 -0.908021
18.968 5.3707 -140.087 0.0909784 0.398883 -0.912477
20.9596 5.35148 -139.896 0.0909584 0.398908 -0.912469
23.1225 5.31111 -139.713 0.0760259 0.395093 -0.91549
25.1243 5.28107 -139.56 0.0768527 0.393559 -0.916081
27.3628 5.26627 -139.381 0.07501 0.391394 -0.917161
29.4845 5.32208 -139.186 0.0745974 0.389907 -0.917828
31.5749 5.34488 -139.009 0.0706848 0.388733 -0.918635
33.6869 5.28595 -138.871 0.0701872 0.386583 -0.91958
35.7125 5.28384 -138.717 0.070005 0.385223 -0.920164
37.8324 5.33304 -138.54 0.0664934 0.383724 -0.921051
39.9737 5.32677 -138.389 0.0651325 0.383295 -0.921327
41.9963 5.34605 -138.243 0.061677 0.381181 -0.922441
44.0064 5.39617 -138.089 0.0603775 0.380427 -0.922838
46.1281 5.35263 -137.976 0.0539857 0.37848 -0.924034
48.1958 5.28796 -137.884 0.0507012 0.380042 -0.923579
50.226 5.33201 -137.758 0.048602 0.379849 -0.923771
52.22 5.54238 -137.566 0.0479915 0.381357 -0.923181
53.764 6.87573 -136.939 0.0437069 0.380398 -0.92379
55.1942 8.23126 -136.312 0.0437669 0.381796 -0.92321
56.6782 9.5459 -135.697 0.0439396 0.382336 -0.922978
58.1373 10.867 -135.084 0.040751 0.382483 -0.923063
59.5047 12.2549 -134.447 0.0413482 0.383173 -0.922751
60.7964 13.6901 -133.794 0.0416573 0.382578 -0.922984
62.1446 15.0692 -133.151 0.0501987 0.391396 -0.918851
63.5059 16.3986 -132.51 0.0520064 0.383765 -0.921965
64.9314 17.8045 -131.842 0.0571803 0.382604 -0.922141
66.1907 19.2848 -131.146 0.0630661 0.383501 -0.921384
65.2331 20.7024 -130.621 0.0586773 0.381261 -0.922603
63.6748 22.0203 -130.172 0.054711 0.379081 -0.923745
62.1975 23.4086 -129.689 0.0539109 0.378506 -0.924027
60.6121 24.7055 -129.25 0.0543333 0.379214 -0.923712
59.0699 25.9348 -128.838 0.055964 0.378871 -0.923756
57.4788 27.1803 -128.425 0.0575021 0.37823 -0.923924
55.8279 28.3728 -128.042 0.0584638 0.37725 -0.924264
54.101 29.596 -127.652 0.0584484 0.377261 -0.924261
52.4808 30.7334 -127.29 0.0584528 0.377241 -0.924269
50.8128 31.9364 -126.907 0.058404 0.373519 -0.925782
49.1442 33.1236 -126.536 0.061242 0.37143 -0.926439
47.4778 34.3578 -126.152 0.0564532 0.369452 -0.927533
45.8489 35.5276 -125.783 0.0529506 0.366409 -0.928946
44.043 36.6955 -125.435 0.051174 0.362395 -0.930618
42.2294 37.7893 -125.098 0.0447196 0.362192 -0.93103
40.4333 38.6573 -124.847 0.0447043 0.362183 -0.931034
38.5369 39.6383 -124.557 0.0455311 0.35947 -0.932045
36.7569 40.5527 -124.298 0.0472996 0.354525 -0.93385
34.8737 41.5168 -124.021 0.0355418 0.353699 -0.934684
33.1148 42.4337 -123.723 0.0252556 0.355327 -0.934401
31.3362 43.385 -123.406 0.0221356 0.358809 -0.933149
29.5537 44.3553 -123.074 0.0227087 0.359454 -0.932887
27.7404 45.3318 -122.741 0.0202371 0.359865 -0.932784
25.9121 46.1862 -122.444 0.0164362 0.361859 -0.932088
24.0349 46.9129 -122.194 0.0162844 0.362065 -0.932011
22.1709 47.6115 -121.956 0.0162819 0.362061 -0.932012
20.1947 48.3463 -121.705 0.016266 0.361993 -0.932039
18.2197 49.1014 -121.445 0.0159293 0.361912 -0.932076
16.2857 49.764 -121.221 0.0152497 0.361351 -0.932305
14.299 50.4749 -120.958 -0.0107682 0.362992 -0.931728
12.305 51.0704 -120.66 -0.0294429 0.359604 -0.932641
10.3349 51.4193 -120.423 -0.0420144 0.354627 -0.934063
8.29892 51.7663 -120.234 -0.0205062 0.342729 -0.939211
6.18164 52.1369 -120.052 -0.0205148 0.342692 -0.939224
5.69532 50.628 -120.592 -0.0205083 0.342713 -0.939216
5.71206 48.6509 -121.314 -0.0205228 0.342697 -0.939222
5.73073 46.6959 -122.028 -0.019422 0.343161 -0.939076
5.66753 44.6921 -122.77 -0.0474625 0.352513 -0.934603
5.69291 42.7713 -123.516 -0.0587968 0.364395 -0.929387
5.62019 40.9 -124.245 -0.0588111 0.364429 -0.929372
5.64721 38.9959 -125.004 -0.0690732 0.377297 -0.923494
5.75157 37.1184 -125.803 -0.0732339 0.388094 -0.918706
5.75235 35.1987 -126.639 -0.0660132 0.429031 -0.900802
5.71889 33.4044 -127.526 -0.0608983 0.441958 -0.894966
5.73881 31.6045 -128.415 -0.0592981 0.441224 -0.895436
5.77045 29.7031 -129.341 -0.026595 0.424423 -0.90506
5.76269 27.8515 -130.209 0.00375908 0.444481 -0.895754
5.70199 25.9541 -131.21 0.0499586 0.48196 -0.874768
5.7228 24.0634 -132.25 0.0511486 0.482171 -0.874582
5.66087 22.2614 -133.255 0.064263 0.485409 -0.871922
5.5984 20.4262 -134.29 0.121608 0.499553 -0.857705
5.40235 18.6328 -135.383 0.174165 0.50423 -0.845792
4.596 17.0956 -136.483 0.208867 0.485068 -0.849166
3.24251 15.8878 -137.537 0.260194 0.485345 -0.834697
1.5218 15.1843 -138.486 0.25461 0.49684 -0.829649
-0.398568 14.948 -139.306 0.386212 0.508709 -0.768693
-2.19755 14.9328 -140.312 0.432689 0.452766 -0.779604
-3.99776 14.8925 -141.269 0.414979 0.409905 -0.812262
-5.80535 14.8459 -142.231 0.441652 0.417154 -0.794263
-7.55143 14.8547 -143.262 0.466481 0.436735 -0.769194
-9.31983 14.7396 -144.51 0.552063 0.397422 -0.732996
-9.78819 14.6514 -144.996 0.629407 0.389741 -0.672271
-11.0067 18.1177 -144.114 0.652412 0.374297 -0.658962
-12.2885 18.098 -145.722 0.787062 0.228821 -0.572865
-13.4701 18.082 -147.352 0.787055 0.228837 -0.572868
-13.1084 16.1636 -147.621 0.787063 0.228829 -0.572861
-12.447 14.1649 -147.77 0.648747 0.372584 -0.663553
-11.6744 12.2394 -147.962 0.664484 0.290125 -0.688686
-10.9481 10.3669 -148.084 0.660356 0.292341 -0.691713
-10.262 8.43543 -148.185 0.628249 0.230717 -0.743016
-9.61091 6.47995 -148.249 0.622051 0.230415 -0.748306
-8.91034 4.58365 -148.319 0.523873 0.245765 -0.815571
-8.23621 2.69056 -148.515 0.469486 0.271284 -0.840227
-6.81105 1.87528 -148.005 0.451337 0.285347 -0.845496
-5.03356 1.86485 -147.061 0.455546 0.288737 -0.842082
-3.26839 1.93564 -146.068 0.460112 0.290363 -0.839039
-1.46372 1.89796 -145.159 0.34709 0.292483 -0.890972
0.501274 1.83978 -144.673 0.124704 0.425943 -0.896115
2.49877 1.85229 -144.362 0.160031 0.390738 -0.906485
4.53521 1.83578 -144.001 0.163725 0.390982 -0.905719
6.64923 1.81707 -143.581 0.202287 0.39583 -0.895767
8.63933 1.79353 -143.126 0.216512 0.382661 -0.898161
10.6061 1.82783 -142.675 0.181184 0.369264 -0.91149
12.6293 1.8437 -142.305 0.148144 0.376794 -0.914374
14.7191 1.82172 -142.033 0.105646 0.368706 -0.923523
16.7168 1.85612 -141.803 0.0933352 0.381531 -0.919632
18.8353 1.8655 -141.589 0.0913371 0.382389 -0.919476
20.9104 1.87516 -141.378 0.0900529 0.383324 -0.919212
22.9594 1.83983 -141.202 0.081058 0.387052 -0.918488
25.011 1.82513 -141.033 0.0772031 0.386677 -0.918978
27.0109 1.80383 -140.877 0.0752055 0.388248 -0.918481
29.0693 1.8427 -140.692 0.0747046 0.388061 -0.918601
31.1886 1.86408 -140.507 0.078707 0.385635 -0.919288
33.1898 1.83286 -140.356 0.071657 0.384405 -0.920379
35.199 1.80449 -140.21 0.07377 0.380713 -0.921746
37.3178 1.85403 -140.018 0.0699096 0.379218 -0.922663
39.5557 1.83441 -139.863 0.0659691 0.378917 -0.923076
41.6324 1.82675 -139.72 0.0650584 0.379829 -0.922766
43.6573 1.87111 -139.562 0.0622071 0.378714 -0.923421
45.8124 1.86248 -139.423 0.058138 0.378781 -0.923659
47.8643 1.81629 -139.328 0.0479822 0.379913 -0.923777
49.9667 1.8331 -139.212 0.0477572 0.379858 -0.923811
52.066 1.83428 -139.103 0.0480035 0.380356 -0.923593
54.0147 2.17968 -138.862 0.0431482 0.380141 -0.923921
55.4492 3.47242 -138.268 0.0354308 0.382669 -0.923206
56.9297 4.87594 -137.628 0.0334504 0.385648 -0.922039
58.3572 6.1706 -137.035 0.0344644 0.38645 -0.921666
59.7954 7.50265 -136.416 0.0366311 0.390542 -0.919856
61.1985 8.79753 -135.811 0.0364475 0.388304 -0.92081
62.5282 10.1709 -135.177 0.0406075 0.384597 -0.922191
63.87 11.6441 -134.502 0.0436433 0.384575 -0.922061
65.3233 13.0429 -133.832 0.0538095 0.392373 -0.918231
66.6903 14.4367 -133.153 0.0587602 0.39272 -0.917779
68.0802 15.8441 -132.459 0.0645942 0.392006 -0.917692
69.3679 17.2904 -131.75 0.068724 0.386694 -0.919644
70.7457 18.8186 -130.998 0.0755468 0.387312 -0.918848
71.191 20.3276 -130.328 0.076133 0.383846 -0.920253
69.6961 21.6403 -129.908 0.0753324 0.380232 -0.921818
68.1934 22.9068 -129.508 0.0726735 0.379145 -0.922479
66.616 24.2347 -129.083 0.065869 0.377196 -0.923787
65.1382 25.5215 -128.654 0.0541714 0.378302 -0.924096
63.6363 26.7875 -128.222 0.0527301 0.379076 -0.923862
62.0364 28.0748 -127.785 0.0527162 0.379075 -0.923863
60.4724 29.3174 -127.366 0.0554268 0.378888 -0.923781
58.7532 30.6456 -126.929 0.0583396 0.377168 -0.924305
57.1064 31.8265 -126.554 0.0581806 0.37338 -0.925852
55.425 32.997 -126.19 0.0584804 0.372136 -0.926334
53.8098 34.1594 -125.825 0.0584686 0.372143 -0.926332
52.1994 35.3101 -125.464 0.058476 0.372138 -0.926334
50.4971 36.5053 -125.091 0.058651 0.372071 -0.926349
48.8788 37.7101 -124.713 0.0646183 0.371165 -0.926316
47.1728 38.8922 -124.384 0.0751494 0.362186 -0.929071
45.4468 40.0237 -124.071 0.0544517 0.359864 -0.931412
43.6138 41.0308 -123.772 0.0450721 0.358901 -0.932286
41.7099 41.9753 -123.507 0.04734 0.354494 -0.933859
39.914 42.9253 -123.237 0.047339 0.354474 -0.933867
38.0576 43.8637 -122.975 0.047317 0.354498 -0.933859
36.2913 44.793 -122.711 0.0472815 0.354466 -0.933873
34.4469 45.7717 -122.418 0.0261365 0.354611 -0.934643
32.6713 46.7418 -122.089 0.0216757 0.351909 -0.935783
30.8797 47.7137 -121.775 0.0243988 0.342313 -0.939269
29.1242 48.6439 -121.481 0.0216715 0.343321 -0.938964
27.3073 49.4646 -121.197 0.00421061 0.349352 -0.936982
25.4333 50.1764 -120.941 0.00422328 0.349334 -0.936989
23.4801 50.8767 -120.688 0.00422376 0.349344 -0.936985
21.5566 51.5574 -120.444 0.00489704 0.350658 -0.93649
19.5916 52.3111 -120.177 0.0129377 0.355779 -0.93448
17.608 53.0756 -119.913 0.0163196 0.361988 -0.93204
15.726 53.7489 -119.681 0.0109866 0.362008 -0.932109
13.7523 54.4359 -119.407 -0.0201932 0.359196 -0.933044
11.6743 54.8349 -119.188 -0.0251871 0.348327 -0.937006
9.69246 55.1402 -119.033 -0.0205201 0.342689 -0.939225
7.67528 55.5099 -118.854 -0.0205284 0.342689 -0.939225
5.61671 55.8645 -118.68 -0.0204995 0.342657 -0.939237
3.63751 56.1992 -118.514 -0.0205323 0.342631 -0.939246
1.9666 55.8526 -118.604 -0.0204816 0.342625 -0.939249
1.98483 53.8859 -119.322 -0.0205151 0.342703 -0.93922
1.95981 51.9924 -120.013 -0.0205211 0.342707 -0.939218
1.95272 50.0899 -120.707 -0.0205083 0.342704 -0.939219
1.95737 48.104 -121.431 -0.0205168 0.342704 -0.939219
1.95524 46.1096 -122.159 -0.0205227 0.342693 -0.939223
1.96871 44.0715 -122.903 -0.0205096 0.342693 -0.939223
1.95923 42.1575 -123.601 -0.0204967 0.342719 -0.939214
1.92692 40.2469 -124.299 -0.0272361 0.34271 -0.939047
1.97111 38.357 -125.015 -0.0511114 0.360761 -0.931257
1.99116 36.4767 -125.776 -0.0727687 0.398961 -0.914018
1.94378 34.6175 -126.659 -0.0625978 0.445579 -0.893051
1.95438 32.7701 -127.581 -0.0617273 0.444887 -0.893457
1.98209 30.9014 -128.512 -0.041582 0.460089 -0.886899
2.0046 29.1282 -129.525 0.0253542 0.531912 -0.84642
1.93743 27.4038 -130.558 0.0558631 0.524972 -0.848879
1.9308 25.6889 -131.648 0.152694 0.544786 -0.824547
1.93052 23.9262 -132.808 0.186565 0.538575 -0.821663
1.92807 22.1398 -133.994 0.210105 0.541247 -0.814191
1.91694 20.3542 -135.157 0.233922 0.52151 -0.820553
1.23524 18.7878 -136.364 0.247754 0.517297 -0.819157
-0.471649 18.2473 -137.348 0.407989 0.497189 -0.765222
-2.25056 18.2501 -138.354 0.445835 0.462958 -0.766095
-4.05387 18.2675 -139.394 0.445899 0.462946 -0.766064
-5.79112 18.2562 -140.408 0.442924 0.460557 -0.769224
-7.63426 18.2345 -141.441 0.435316 0.419691 -0.796467
-9.41607 18.1894 -142.599 0.571029 0.428549 -0.700194
-10.8901 18.1299 -143.993 0.64861 0.374368 -0.662687
-10.9705 18.1214 -144.077 0.648607 0.374391 -0.662677
-7.27259 12.5695 -144.21 0.486597 0.347322 -0.801618
-5.44378 12.1444 -143.324 0.449408 0.365134 -0.815297
-3.5582 11.7455 -142.502 0.424986 0.367732 -0.82714
-1.6449 11.3592 -141.715 0.381302 0.376813 -0.844169
0.304118 11.0589 -141.11 0.296529 0.437336 -0.849004
2.22729 10.8035 -140.59 0.27197 0.42377 -0.863974
4.23115 10.5606 -140.086 0.267638 0.424547 -0.864945
6.20073 10.3817 -139.705 0.178027 0.463107 -0.868239
8.31504 10.2221 -139.356 0.178741 0.460541 -0.869456
10.3165 10.085 -139.049 0.14177 0.441013 -0.886233
12.3171 9.97176 -138.788 0.137698 0.437246 -0.888738
14.4627 9.87543 -138.56 0.103728 0.419102 -0.901994
16.4685 9.79472 -138.364 0.0898292 0.411532 -0.906958
18.4719 9.72992 -138.201 0.0869471 0.411338 -0.907326
20.56 9.6625 -138.035 0.0790494 0.409525 -0.908868
22.729 9.60288 -137.881 0.0754901 0.400745 -0.913074
24.8529 9.54519 -137.733 0.0687988 0.399821 -0.914008
26.9759 9.4924 -137.598 0.0702824 0.397387 -0.914956
29.1968 9.43345 -137.449 0.0716458 0.393186 -0.916663
31.2746 9.38232 -137.318 0.0667726 0.391951 -0.91756
33.4366 9.32902 -137.182 0.0669438 0.387548 -0.919415
35.5014 9.27891 -137.056 0.0652396 0.386559 -0.919954
37.5529 9.23028 -136.933 0.0631437 0.38315 -0.921525
39.6021 9.18357 -136.814 0.0619632 0.382694 -0.921795
41.6656 9.13697 -136.695 0.0602539 0.382391 -0.922034
43.7443 9.09279 -136.583 0.0565875 0.381158 -0.922776
45.9487 9.04726 -136.468 0.0556901 0.380546 -0.923083
48.0771 9.00541 -136.363 0.0503756 0.379356 -0.923879
50.1596 8.9668 -136.266 0.0499848 0.379683 -0.923765
52.1728 8.92937 -136.172 0.0503349 0.380269 -0.923505
53.2386 8.91055 -136.124 0.044738 0.381688 -0.923208
56.5698 12.0139 -134.68 0.0440591 0.382236 -0.923014
54.5506 12.048 -134.764 0.0438172 0.380794 -0.923621
52.5301 12.0842 -134.853 0.0525116 0.377807 -0.924394
50.4015 12.1251 -134.955 0.0501686 0.378646 -0.924181
48.338 12.1638 -135.051 0.0505025 0.37915 -0.923956
46.1096 12.2065 -135.158 0.053611 0.378805 -0.923922
43.9198 12.2513 -135.27 0.0556413 0.380203 -0.923228
41.9151 12.2932 -135.375 0.0564273 0.380423 -0.923089
39.8977 12.3369 -135.484 0.060376 0.383577 -0.921533
37.8301 12.3832 -135.6 0.0602703 0.38485 -0.921009
35.7197 12.4318 -135.721 0.062346 0.384501 -0.921017
33.6917 12.4793 -135.839 0.0620188 0.386819 -0.920068
31.6572 12.5263 -135.955 0.0638027 0.388613 -0.919189
29.6257 12.5751 -136.077 0.0605839 0.392951 -0.917562
27.6089 12.6213 -136.191 0.0639578 0.39662 -0.915752
25.6095 12.6717 -136.314 0.0669971 0.398283 -0.914813
23.4278 12.7282 -136.451 0.0694792 0.403556 -0.912313
21.4205 12.7813 -136.58 0.0689905 0.411263 -0.908902
19.3053 12.8389 -136.719 0.0759424 0.41051 -0.908688
17.2366 12.9058 -136.873 0.0760837 0.419606 -0.904512
15.1654 12.9746 -137.027 0.0896136 0.423638 -0.901388
13.0829 13.0504 -137.193 0.081315 0.433342 -0.897553
11.0788 13.1382 -137.375 0.11966 0.441836 -0.889079
9.03691 13.2584 -137.619 0.158223 0.463854 -0.871668
7.02524 13.4173 -137.923 0.171115 0.465263 -0.868475
5.06788 13.6147 -138.287 0.254659 0.465533 -0.847601
3.18006 13.8673 -138.736 0.262695 0.485585 -0.833785
6.50669 16.5351 -136.347 0.174886 0.458029 -0.871565
8.66356 16.3787 -136.083 0.116222 0.442118 -0.889395
10.713 16.2635 -135.878 0.114343 0.441447 -0.889972
12.7771 16.1699 -135.704 0.0755162 0.435726 -0.896906
14.7949 16.1023 -135.57 0.0741205 0.438368 -0.895734
16.9803 16.0329 -135.428 0.0677298 0.420724 -0.904657
19.0901 15.9729 -135.3 0.057632 0.418392 -0.906436
21.1005 15.9285 -135.201 0.059371 0.399928 -0.914622
23.174 15.8773 -135.085 0.0610238 0.399992 -0.914485
25.2522 15.8263 -134.966 0.0638136 0.39888 -0.91478
27.3613 15.7745 -134.845 0.0590949 0.394415 -0.91703
29.4276 15.7284 -134.735 0.0569095 0.392869 -0.917832
31.5294 15.6853 -134.631 0.0513719 0.388719 -0.919923
33.6123 15.6402 -134.522 0.0589327 0.38464 -0.921184
35.6119 15.5937 -134.408 0.0623668 0.384436 -0.921043
37.6396 15.5473 -134.295 0.0553477 0.380378 -0.923174
39.8132 15.5013 -134.182 0.0565786 0.379402 -0.9235
42.0365 15.4541 -134.065 0.0563157 0.380118 -0.923222
44.1616 15.4103 -133.957 0.0530669 0.37839 -0.924124
46.3181 15.3675 -133.851 0.052641 0.378373 -0.924155
48.3234 15.3283 -133.754 0.0507589 0.37875 -0.924106
50.4194 15.2899 -133.659 0.0478824 0.378291 -0.924447
52.4711 15.2528 -133.568 0.0486051 0.377758 -0.924628
54.564 15.2144 -133.474 0.0471339 0.376808 -0.925092
56.6242 15.1768 -133.382 0.0484913 0.377963 -0.92455
58.715 15.1389 -133.29 0.0464694 0.379403 -0.924064
59.5741 15.1244 -133.254 0.0416707 0.382333 -0.923085
62.6715 18.2236 -131.803 0.0525316 0.38084 -0.923147
60.6022 18.2651 -131.903 0.0521806 0.380685 -0.923231
58.4782 18.3079 -132.006 0.0486881 0.377139 -0.924876
56.4177 18.3461 -132.099 0.0485236 0.377425 -0.924768
54.3882 18.3838 -132.19 0.0503391 0.377132 -0.92479
52.2031 18.4251 -132.291 0.0476162 0.375406 -0.925637
50.0471 18.4638 -132.386 0.0475415 0.375361 -0.925659
47.9334 18.5025 -132.481 0.0503628 0.375275 -0.925544
45.8219 18.5441 -132.583 0.0528177 0.376933 -0.924733
43.7999 18.5845 -132.682 0.052809 0.376919 -0.924739
41.6562 18.628 -132.788 0.0557031 0.378043 -0.924111
39.6129 18.672 -132.895 0.0568458 0.37851 -0.92385
37.5281 18.7151 -132.999 0.0509537 0.379214 -0.923905
35.4969 18.7559 -133.097 0.0554592 0.38266 -0.922223
33.4733 18.8027 -133.21 0.0559653 0.384881 -0.921268
31.3852 18.8432 -133.306 0.0476172 0.388636 -0.92016
29.2297 18.8838 -133.402 0.051662 0.390094 -0.919325
27.2043 18.9286 -133.505 0.0568204 0.39211 -0.918162
25.105 18.9733 -133.607 0.0549125 0.395965 -0.916622
23.018 19.025 -133.722 0.061449 0.398912 -0.914928
20.9833 19.0714 -133.822 0.040873 0.406572 -0.912704
18.8739 19.1065 -133.892 0.0407433 0.410994 -0.910727
16.7121 19.1589 -133.995 0.0533249 0.424481 -0.903865
14.6638 19.2014 -134.075 0.0430578 0.425172 -0.904088
12.6232 19.2635 -134.186 0.0739325 0.443616 -0.893162
10.5163 19.3429 -134.323 0.0744547 0.446441 -0.89171
8.3751 19.4438 -134.486 0.101744 0.476077 -0.873498
7.45289 19.4989 -134.575 0.113527 0.479456 -0.870192
7.5433 22.534 -132.975 0.0674876 0.460698 -0.884988
9.62568 22.4516 -132.851 0.0736242 0.44397 -0.893012
11.7212 22.3781 -132.731 0.0505642 0.426912 -0.902879
13.7214 22.3318 -132.658 0.0413092 0.421533 -0.905872
15.7689 22.2889 -132.586 0.0395034 0.418907 -0.907169
17.8235 22.2557 -132.528 0.0352059 0.402899 -0.914567
19.9259 22.2181 -132.457 0.0376496 0.404615 -0.913712
21.9964 22.1843 -132.389 0.0362316 0.408477 -0.912049
24.0659 22.1404 -132.296 0.0554943 0.399334 -0.915124
26.1764 22.0983 -132.205 0.0456302 0.394592 -0.917723
28.3265 22.0552 -132.108 0.0479935 0.388235 -0.92031
30.3406 22.0168 -132.021 0.0468964 0.387204 -0.9208
32.3668 21.9788 -131.933 0.0478157 0.385271 -0.921564
34.3795 21.9427 -131.848 0.0481858 0.379708 -0.923851
36.4082 21.9028 -131.753 0.0508722 0.37884 -0.924063
38.4658 21.8623 -131.656 0.0522313 0.379119 -0.923873
40.5559 21.8179 -131.55 0.0547547 0.377685 -0.924314
42.6963 21.7745 -131.444 0.0527317 0.376939 -0.924736
44.7886 21.7325 -131.342 0.052159 0.376715 -0.924859
46.851 21.6922 -131.245 0.0506007 0.375658 -0.925376
49.0106 21.6521 -131.147 0.048113 0.375191 -0.925698
51.0122 21.6154 -131.058 0.0483581 0.375866 -0.925411
53.0316 21.5767 -130.964 0.0511164 0.376799 -0.924883
55.1009 21.5365 -130.866 0.0499831 0.377162 -0.924798
57.1009 21.4991 -130.776 0.0488572 0.37765 -0.924658
59.1267 21.4577 -130.676 0.0565116 0.38016 -0.923193
61.2673 21.4129 -130.567 0.0533253 0.38116 -0.92297
61.7522 21.403 -130.543 0.0551046 0.382122 -0.922467
57.8033 24.6483 -129.443 0.0562029 0.379687 -0.923406
55.7233 24.6912 -129.547 0.0508804 0.375786 -0.925309
53.642 24.733 -129.648 0.0533844 0.372969 -0.926307
51.6367 24.7741 -129.748 0.0537506 0.372332 -0.926542
49.5002 24.8159 -129.849 0.0478175 0.371268 -0.927294
47.4282 24.8539 -129.941 0.048185 0.370916 -0.927416
45.3245 24.8941 -130.038 0.0502298 0.370798 -0.927354
43.2551 24.9341 -130.134 0.050161 0.371398 -0.927118
41.188 24.9747 -130.231 0.0516303 0.371914 -0.92683
38.9994 25.0177 -130.335 0.0495032 0.375406 -0.925537
36.8343 25.0605 -130.437 0.0520259 0.377604 -0.924504
34.7891 25.102 -130.535 0.052061 0.377282 -0.924634
32.767 25.1349 -130.611 0.0361893 0.378063 -0.925072
30.7685 25.1662 -130.682 0.041651 0.382356 -0.923076
28.6835 25.2053 -130.771 0.0469364 0.385238 -0.921623
26.6013 25.2446 -130.858 0.0430471 0.385289 -0.921791
24.595 25.2794 -130.932 0.0368869 0.387353 -0.921193
22.5887 25.3066 -130.987 0.0362576 0.398432 -0.916481
20.5221 25.3429 -131.06 0.0401166 0.400267 -0.91552
18.5216 25.3788 -131.129 0.0313785 0.404138 -0.91416
16.4645 25.4019 -131.165 0.0177823 0.406376 -0.913533
14.2737 25.428 -131.202 0.026822 0.412188 -0.910704
12.2643 25.4697 -131.269 0.0407348 0.419983 -0.906617
10.2078 25.5106 -131.33 0.0126177 0.416045 -0.909256
8.07966 25.5241 -131.328 0.014374 0.442886 -0.896463
7.65104 25.5337 -131.34 0.0305434 0.460452 -0.887159
7.7032 28.6085 -129.868 -0.00662439 0.422413 -0.906379
9.74673 28.6064 -129.886 -0.0072963 0.422719 -0.906231
11.8592 28.5787 -129.849 0.0376756 0.419587 -0.906933
13.8751 28.5529 -129.813 0.0175115 0.406363 -0.913544
15.8852 28.532 -129.784 0.0177635 0.406278 -0.913577
17.9692 28.5111 -129.752 0.0180363 0.406472 -0.913485
20.1246 28.4843 -129.704 0.0387277 0.400693 -0.915393
22.1457 28.4557 -129.648 0.0220696 0.391871 -0.919756
24.2963 28.4337 -129.608 0.0213351 0.391716 -0.919839
26.3639 28.4055 -129.549 0.0435004 0.384589 -0.922062
28.412 28.3679 -129.465 0.0414222 0.38313 -0.922765
30.473 28.3353 -129.394 0.0361709 0.377902 -0.925139
32.534 28.3049 -129.326 0.036179 0.377889 -0.925144
34.5553 28.2731 -129.252 0.0479647 0.377903 -0.924602
36.5841 28.2333 -129.158 0.0475451 0.374234 -0.926115
38.6416 28.1965 -129.071 0.04571 0.373345 -0.926566
40.6933 28.1587 -128.981 0.0511341 0.371978 -0.926832
42.7921 28.1181 -128.884 0.0494415 0.370983 -0.927322
44.8436 28.079 -128.79 0.0499282 0.370653 -0.927428
46.8516 28.0405 -128.697 0.0499265 0.370702 -0.927409
48.886 28.0023 -128.605 0.0480553 0.370847 -0.92745
50.968 27.9611 -128.506 0.0536873 0.372351 -0.926538
53.1189 27.9164 -128.398 0.0565326 0.374143 -0.925646
53.3876 27.9106 -128.384 0.0557492 0.375106 -0.925304
48.7445 31.1798 -127.34 0.0543889 0.371894 -0.926681
46.6876 31.2207 -127.439 0.0523735 0.36781 -0.928425
44.6744 31.261 -127.536 0.0514672 0.367392 -0.928641
42.4809 31.3026 -127.636 0.0484775 0.36723 -0.928866
40.3235 31.3425 -127.732 0.0476052 0.367628 -0.928754
38.2559 31.3791 -127.819 0.0445778 0.366123 -0.929498
36.2348 31.4142 -127.902 0.0445029 0.36629 -0.929436
34.0853 31.4505 -127.987 0.0360462 0.367977 -0.929136
32.0493 31.4797 -128.054 0.0363444 0.371172 -0.927853
29.8269 31.5123 -128.127 0.0357939 0.371343 -0.927806
27.7508 31.5435 -128.195 0.0355946 0.371156 -0.927888
25.7486 31.57 -128.251 0.0244138 0.376796 -0.925974
23.613 31.5926 -128.297 0.0235121 0.374642 -0.926872
21.597 31.6143 -128.339 0.0231834 0.374417 -0.926971
19.4369 31.633 -128.371 0.0112822 0.380221 -0.924827
17.3809 31.6528 -128.406 0.0220263 0.388464 -0.9212
15.3183 31.6756 -128.444 0.0187806 0.387976 -0.921478
13.2139 31.6934 -128.467 0.0127112 0.387278 -0.921875
11.1835 31.7052 -128.478 -0.00943156 0.398802 -0.916989
9.09387 31.7008 -128.449 -0.00455967 0.417168 -0.908818
7.69749 31.7026 -128.441 -0.0045111 0.417225 -0.908792
7.72254 34.7828 -126.984 -0.0601643 0.432492 -0.899628
9.88798 34.8093 -127.057 -0.0301658 0.407267 -0.912811
11.9241 34.8286 -127.115 -0.0297947 0.406443 -0.91319
14.02 34.8325 -127.137 0.0128397 0.387279 -0.921873
16.0844 34.8132 -127.105 0.0178406 0.388085 -0.921451
18.2154 34.8002 -127.086 0.00692146 0.378041 -0.925763
20.4327 34.7899 -127.074 0.00934502 0.377871 -0.925811
22.5071 34.7724 -127.041 0.023603 0.374299 -0.927008
24.6699 34.7498 -126.995 0.0237618 0.374295 -0.927005
26.7195 34.728 -126.949 0.0250719 0.374664 -0.926821
28.7751 34.7026 -126.894 0.0343962 0.370911 -0.928031
30.8807 34.6718 -126.825 0.0358602 0.370232 -0.928247
33.0421 34.6428 -126.76 0.0301772 0.367433 -0.92956
35.0599 34.6155 -126.697 0.0430475 0.366426 -0.929451
37.0725 34.5807 -126.614 0.0452383 0.366059 -0.929491
39.1185 34.5437 -126.526 0.0476123 0.367735 -0.928711
41.1432 34.5066 -126.437 0.0476085 0.367738 -0.92871
43.2495 34.4683 -126.344 0.048675 0.366362 -0.929199
44.2494 34.4492 -126.298 0.0518778 0.366164 -0.929103
38.1822 37.741 -125.312 0.0453074 0.362869 -0.930738
36.1413 37.7771 -125.399 0.0465251 0.366457 -0.929271
34.0131 37.81 -125.477 0.0305098 0.36748 -0.929531
31.8004 37.8367 -125.538 0.0302942 0.367329 -0.929598
29.637 37.8636 -125.599 0.0288773 0.370634 -0.92833
27.5853 37.8862 -125.649 0.0249663 0.374671 -0.926822
25.5856 37.9071 -125.694 0.0249835 0.37469 -0.926814
23.5824 37.9282 -125.739 0.0236204 0.374304 -0.927005
21.4123 37.947 -125.776 0.00927468 0.378715 -0.925467
19.4039 37.9553 -125.789 0.00692415 0.378049 -0.92576
17.3845 37.9641 -125.801 0.00838359 0.376252 -0.92648
15.2991 37.9747 -125.817 0.00987942 0.366429 -0.930394
13.2377 37.9689 -125.792 -0.0247619 0.376384 -0.926133
11.2208 37.9562 -125.752 -0.0195992 0.383809 -0.923204
9.12406 37.9413 -125.708 -0.0395359 0.386992 -0.921235
7.70461 37.909 -125.625 -0.0732187 0.388095 -0.918706
7.68315 41.0586 -124.315 -0.0600294 0.367367 -0.928137
9.68314 41.0979 -124.419 -0.0379507 0.371148 -0.927798
11.8333 41.1259 -124.495 -0.0385905 0.362215 -0.931295
13.8849 41.1526 -124.57 -0.0346494 0.358869 -0.932744
15.8867 41.1506 -124.572 0.0158731 0.361717 -0.932153
17.9703 41.1356 -124.543 0.0158969 0.361884 -0.932088
20.1405 41.1199 -124.512 0.0155845 0.362585 -0.93182
22.1564 41.1065 -124.485 0.0128491 0.370842 -0.928607
24.2831 41.0898 -124.45 0.019014 0.363571 -0.931372
26.344 41.0731 -124.415 0.0180894 0.36052 -0.932576
28.3612 41.0576 -124.382 0.0184979 0.360697 -0.9325
30.3962 41.0386 -124.34 0.0246073 0.362041 -0.931837
31.9952 41.0204 -124.298 0.03037 0.358913 -0.932877
25.9429 44.2615 -123.19 0.017496 0.36116 -0.93234
23.9036 44.2757 -123.221 0.0163107 0.362078 -0.932005
21.8138 44.2904 -123.252 0.0161337 0.362046 -0.93202
19.8131 44.3043 -123.281 0.0159048 0.361884 -0.932087
17.6639 44.3195 -123.312 0.0158831 0.361892 -0.932085
15.5278 44.3343 -123.342 0.0141602 0.361382 -0.93231
13.4818 44.3281 -123.32 -0.0381981 0.361596 -0.931552
11.3884 44.3004 -123.244 -0.0387097 0.361833 -0.931439
9.33855 44.2694 -123.159 -0.0584196 0.36408 -0.929534
7.58956 44.2331 -123.063 -0.058821 0.364377 -0.929392
7.64077 47.4132 -121.824 -0.044949 0.354224 -0.93408
9.75706 47.455 -121.937 -0.0583793 0.363454 -0.929781
11.7971 47.4871 -122.024 -0.0363871 0.361878 -0.931515
13.8747 47.514 -122.097 -0.0338637 0.364464 -0.930602
15.9779 47.5129 -122.1 0.0150684 0.361402 -0.932288
17.2078 47.5044 -122.083 0.0158944 0.361899 -0.932082
9.51085 6.97055 -140.632 0.175035 0.414251 -0.893174
7.38719 7.13199 -141.033 0.206528 0.403445 -0.891391
5.35331 7.29215 -141.431 0.206461 0.403421 -0.891417
3.36888 7.44795 -141.823 0.240704 0.351949 -0.904541
1.45008 7.66066 -142.359 0.317965 0.313531 -0.894761
-0.493799 7.89022 -142.948 0.295802 0.314319 -0.902056
-2.53279 8.12852 -143.58 0.370668 0.335982 -0.865864
-4.3703 8.42647 -144.381 0.434971 0.326616 -0.83912
-5.4429 8.60384 -144.865 0.43195 0.323771 -0.841779
-5.53135 8.61828 -144.905 0.431191 0.319208 -0.843908
