-6.91111 14.9775 -145.891 0.529453 0.412455 -0.740995
-5.98448 13.1688 -146.26 0.459801 0.375384 -0.804778
-4.99354 11.2403 -146.602 0.44609 0.375785 -0.812256
-3.91987 9.38285 -146.851 0.415297 0.33492 -0.845788
-2.88998 7.67606 -147.016 0.410668 0.328355 -0.850608
-1.81651 5.99337 -147.147 0.402428 0.325204 -0.855742
-0.138128 5.01334 -146.849 0.295292 0.326075 -0.898041
1.8154 4.92615 -146.25 0.25483 0.337971 -0.905785
3.92707 4.88427 -145.764 0.20582 0.38286 -0.900587
5.89614 4.90619 -145.305 0.20299 0.380936 -0.902044
7.88354 4.97265 -144.834 0.205316 0.372851 -0.904891
9.888 4.93854 -144.397 0.1904 0.372899 -0.908127
12.0001 4.90149 -144.011 0.165581 0.38454 -0.908131
14.0257 4.90769 -143.67 0.129715 0.384544 -0.913948
16.0577 4.91246 -143.383 0.122955 0.395741 -0.910074
18.125 4.92601 -143.143 0.0965231 0.390548 -0.915508
20.163 4.92315 -142.931 0.0895779 0.387738 -0.917407
22.1934 4.93846 -142.731 0.0861061 0.389006 -0.917202
24.4386 4.90884 -142.536 0.0815606 0.389589 -0.91737
26.446 4.89394 -142.369 0.0787872 0.389562 -0.917624
28.5185 4.86855 -142.202 0.0782519 0.389635 -0.917639
30.5171 4.86902 -142.031 0.0773523 0.387513 -0.918613
32.5566 4.86282 -141.867 0.0746192 0.38536 -0.919745
34.6291 4.96332 -141.663 0.070371 0.384337 -0.920507
36.6702 4.99419 -141.495 0.0689494 0.383124 -0.92112
38.6876 4.95925 -141.363 0.0658952 0.382161 -0.921743
40.7239 4.94235 -141.226 0.0644923 0.381563 -0.92209
42.7598 4.94283 -141.085 0.0626839 0.380381 -0.922703
44.5645 5.58702 -140.698 0.0611386 0.380015 -0.922958
46.1343 6.72741 -140.128 0.0584182 0.378412 -0.923792
47.742 7.91549 -139.54 0.0571519 0.379199 -0.923549
49.3517 9.04756 -138.982 0.0523278 0.378914 -0.923951
50.9039 10.2557 -138.399 0.0526878 0.378526 -0.92409
52.4218 11.6209 -137.753 0.0525709 0.379088 -0.923866
53.9014 12.8995 -137.146 0.0481067 0.379948 -0.923756
55.3753 14.2818 -136.506 0.0472668 0.376019 -0.925406
56.8323 15.5924 -135.894 0.05142 0.378479 -0.92418
58.2649 16.9275 -135.267 0.0518588 0.378559 -0.924123
59.5763 18.3236 -134.622 0.0523547 0.377589 -0.924492
60.924 19.6673 -133.99 0.0568869 0.380004 -0.923234
59.463 21.0028 -133.532 0.0571183 0.378749 -0.923735
57.8588 22.2783 -133.105 0.0541168 0.37776 -0.92432
56.2537 23.4362 -132.724 0.0541931 0.37653 -0.924818
54.6429 24.664 -132.321 0.0558715 0.373838 -0.92581
53.0242 25.7925 -131.963 0.0549626 0.372707 -0.92632
51.363 26.9299 -131.603 0.0538257 0.372389 -0.926515
49.7092 28.083 -131.233 0.0500535 0.371797 -0.926964
48.0244 29.2196 -130.868 0.0505999 0.371735 -0.926959
46.4084 30.3894 -130.488 0.0526713 0.371085 -0.927104
44.7432 31.5359 -130.124 0.0502524 0.371923 -0.926902
42.9738 32.5471 -129.805 0.0408548 0.37589 -0.925763
41.0915 33.5546 -129.477 0.0404393 0.376494 -0.925536
39.3035 34.4733 -129.181 0.0396734 0.378343 -0.924815
37.583 35.502 -128.831 0.0393616 0.38014 -0.924091
35.8474 36.4582 -128.524 0.0472908 0.373906 -0.92626
34.0595 37.3302 -128.261 0.0386032 0.374327 -0.926493
32.1666 38.2895 -127.947 0.0334607 0.369659 -0.928565
30.3796 39.1798 -127.66 0.0274293 0.366588 -0.929979
28.6507 40.1276 -127.326 0.0161931 0.365221 -0.93078
26.6871 40.9517 -127.038 0.0167107 0.36423 -0.931159
24.6037 41.6966 -126.783 0.0140367 0.364004 -0.931292
22.729 42.4358 -126.519 0.0125375 0.363797 -0.931394
20.8312 43.1887 -126.249 0.00984301 0.365057 -0.930933
18.8157 43.9154 -125.98 0.00774408 0.367387 -0.930036
16.752 44.693 -125.69 0.00774451 0.367396 -0.930032
14.8449 45.4524 -125.395 -0.0138294 0.363004 -0.931685
12.7805 46.048 -125.098 -0.0249105 0.360116 -0.932575
10.6058 46.3854 -124.938 -0.0115516 0.355056 -0.934774
8.61636 46.6807 -124.767 -0.0426509 0.355742 -0.93361
6.61452 46.9897 -124.561 -0.0280694 0.349813 -0.936396
5.31563 46.2729 -124.789 -0.0218536 0.344219 -0.938635
5.34094 44.3129 -125.518 -0.0412349 0.349854 -0.935896
5.29421 42.2837 -126.288 -0.0436222 0.355837 -0.93353
5.2766 40.3721 -127.016 -0.0436086 0.355856 -0.933523
5.33673 38.4504 -127.763 -0.0505334 0.380857 -0.923252
5.30515 36.5469 -128.572 -0.0536877 0.395085 -0.917074
5.29599 34.6954 -129.458 -0.0434315 0.447138 -0.89341
5.28402 32.8842 -130.368 -0.0439342 0.448638 -0.892633
5.29002 31.0317 -131.298 -0.0418315 0.448037 -0.893036
5.27961 29.2455 -132.21 0.0378503 0.47343 -0.879936
5.29075 27.4064 -133.234 0.0508144 0.487561 -0.871609
5.27228 25.6592 -134.216 0.0546862 0.493233 -0.868176
5.19988 23.8762 -135.263 0.104985 0.506212 -0.855995
5.19556 22.1689 -136.307 0.14232 0.521028 -0.841588
5.20406 20.3867 -137.406 0.168789 0.518394 -0.838318
4.99906 18.7058 -138.495 0.178618 0.521353 -0.834438
4.1614 17.1646 -139.634 0.215986 0.498501 -0.839552
2.74592 16.0732 -140.66 0.22278 0.498828 -0.83758
0.922306 15.4759 -141.502 0.2238 0.508658 -0.831372
-0.916824 15.3421 -142.367 0.393032 0.483686 -0.782032
-2.74748 15.3055 -143.318 0.412094 0.476434 -0.776652
-4.58662 15.2834 -144.365 0.450217 0.43846 -0.777854
-6.30904 15.1627 -145.423 0.452146 0.434615 -0.77889
-6.85234 15.0892 -145.79 0.521758 0.386483 -0.76024
-7.68288 18.2841 -144.646 0.600032 0.404198 -0.690351
-9.15483 18.3025 -146.002 0.634433 0.385746 -0.669845
-10.6104 18.2398 -147.509 0.701019 0.282676 -0.654726
-10.4236 16.7581 -148.107 0.645253 0.371213 -0.667619
-9.54757 14.7528 -148.305 0.637573 0.288285 -0.714344
-8.831 12.8668 -148.39 0.62398 0.269507 -0.733495
-7.99564 10.9088 -148.543 0.513601 0.362099 -0.777881
-6.97041 9.05309 -148.719 0.504982 0.353892 -0.787245
-6.00573 7.2977 -148.855 0.443737 0.289651 -0.848057
-5.00646 5.47584 -148.892 0.42335 0.249539 -0.870922
-3.80884 3.69111 -148.949 0.363566 0.312859 -0.877462
-2.39211 2.11952 -148.913 0.392853 0.329123 -0.858652
-0.617685 1.71003 -148.243 0.349981 0.337815 -0.873724
1.46771 1.71954 -147.671 0.182149 0.39099 -0.902191
3.47272 1.68009 -147.251 0.192068 0.404942 -0.893938
5.49804 1.71365 -146.77 0.220945 0.379853 -0.898273
7.47119 1.72875 -146.279 0.219176 0.378664 -0.899208
9.5179 1.70984 -145.803 0.201216 0.372499 -0.905956
11.4932 1.66894 -145.44 0.158407 0.38153 -0.910673
13.5413 1.69 -145.084 0.153961 0.382514 -0.911032
15.6459 1.68945 -144.755 0.125093 0.368499 -0.92116
17.8372 1.68729 -144.52 0.0927704 0.377735 -0.921254
19.8314 1.71171 -144.304 0.0879346 0.382453 -0.919781
21.8327 1.69355 -144.128 0.0831002 0.383684 -0.919718
23.9259 1.69586 -143.936 0.0846537 0.385054 -0.919003
26.0673 1.72031 -143.738 0.0759901 0.38417 -0.92013
28.0635 1.66902 -143.591 0.0783355 0.387106 -0.918702
30.1239 1.66415 -143.416 0.0797271 0.387011 -0.918622
32.2281 1.67747 -143.228 0.0797872 0.386948 -0.918643
34.2399 1.71469 -143.043 0.0725289 0.383334 -0.920758
36.2689 1.74627 -142.873 0.0731641 0.379227 -0.922406
38.3142 1.73916 -142.72 0.0667082 0.380398 -0.922414
40.4889 1.73355 -142.568 0.0653445 0.380793 -0.922349
42.5381 1.71095 -142.433 0.0651253 0.380836 -0.922346
44.6513 1.70627 -142.288 0.0628908 0.379629 -0.922999
46.3599 2.78796 -141.732 0.0558704 0.380773 -0.922978
48.0378 3.95851 -141.151 0.0528659 0.381094 -0.923023
49.7269 5.1708 -140.554 0.0524375 0.380797 -0.923171
51.3004 6.3197 -139.992 0.0518907 0.379806 -0.92361
52.856 7.4849 -139.426 0.0501421 0.379352 -0.923892
54.3087 8.72982 -138.842 0.045402 0.378349 -0.924549
55.8025 10.0442 -138.229 0.0458017 0.380123 -0.923801
57.2008 11.3473 -137.624 0.0418231 0.381854 -0.923276
58.6255 12.6354 -137.028 0.0418903 0.383841 -0.922448
60.0583 13.944 -136.415 0.0434918 0.385013 -0.921886
61.4801 15.3756 -135.746 0.0479955 0.385267 -0.921556
62.8572 16.7629 -135.088 0.0516622 0.388299 -0.920084
64.251 18.1765 -134.412 0.0513743 0.387894 -0.920271
65.6123 19.5387 -133.764 0.0551107 0.381282 -0.922815
64.7497 20.9066 -133.251 0.0548956 0.380994 -0.922946
63.2216 22.1375 -132.833 0.0550923 0.38151 -0.922721
61.6059 23.4401 -132.392 0.0568215 0.381934 -0.922441
60.081 24.6896 -131.971 0.0596672 0.382449 -0.922048
58.4813 25.8537 -131.596 0.0619405 0.378212 -0.923645
56.7778 27.1184 -131.195 0.0625832 0.377097 -0.924057
55.1267 28.2825 -130.831 0.0625035 0.377036 -0.924087
53.5167 29.4198 -130.473 0.0580373 0.374345 -0.925471
51.9054 30.5659 -130.108 0.0546668 0.372775 -0.92631
50.2616 31.6988 -129.748 0.0534437 0.372609 -0.926448
48.6161 32.8685 -129.372 0.0515103 0.371843 -0.926866
46.9934 34.0046 -129.007 0.0536126 0.371032 -0.927071
45.2761 34.9944 -128.707 0.0456865 0.373413 -0.92654
43.4383 36.0018 -128.377 0.0392373 0.379551 -0.924338
41.7177 36.9673 -128.053 0.0391094 0.380153 -0.924096
39.9579 37.9333 -127.73 0.0391039 0.380179 -0.924086
38.1678 38.9185 -127.413 0.0475321 0.372867 -0.926667
36.3605 39.8277 -127.15 0.0495912 0.361893 -0.930898
34.5007 40.752 -126.893 0.0501126 0.359609 -0.931756
32.6883 41.7047 -126.608 0.0316177 0.357302 -0.933454
30.8078 42.7082 -126.273 0.0237231 0.355586 -0.934342
28.98 43.6046 -125.972 0.00891281 0.356094 -0.934407
27.0954 44.3007 -125.724 0.00963843 0.360784 -0.932598
25.1578 44.9955 -125.484 0.0168438 0.364081 -0.931215
23.2653 45.722 -125.228 0.0107479 0.364916 -0.930979
21.373 46.4132 -124.972 0.00774753 0.367384 -0.930037
19.4593 47.1533 -124.696 0.00774644 0.367393 -0.930034
17.546 47.87 -124.429 0.00773957 0.367385 -0.930037
15.5456 48.6359 -124.142 0.00701007 0.367243 -0.930098
13.6403 49.189 -123.9 -0.0168288 0.359165 -0.933122
11.6564 49.517 -123.753 -0.00955429 0.356669 -0.934182
9.62128 49.8103 -123.613 -0.0256622 0.353412 -0.935116
7.54235 50.1715 -123.414 -0.0215781 0.341982 -0.939458
5.51333 50.5037 -123.248 -0.0206146 0.342717 -0.939213
3.48159 50.8429 -123.08 -0.0206145 0.342715 -0.939213
1.85184 50.5789 -123.141 -0.020625 0.342716 -0.939213
1.84522 48.6266 -123.853 -0.0206158 0.342735 -0.939206
1.85712 46.6751 -124.565 -0.0206387 0.342724 -0.93921
1.86625 44.7815 -125.256 -0.0206147 0.342746 -0.939202
1.83146 42.8021 -125.978 -0.0206589 0.34272 -0.93921
1.82633 40.9197 -126.666 -0.0223831 0.34343 -0.938912
1.83061 38.9533 -127.397 -0.0413715 0.352373 -0.934942
1.82949 36.9225 -128.201 -0.0521541 0.395835 -0.916745
1.83431 35.0549 -129.111 -0.0434719 0.445965 -0.893994
1.80063 33.2616 -130.009 -0.0337696 0.455805 -0.889439
1.81723 31.5093 -130.987 0.0392119 0.527585 -0.848597
1.78217 29.7778 -132.037 0.0503942 0.518069 -0.85385
1.8138 28.0821 -133.123 0.124614 0.529062 -0.839383
1.81832 26.3389 -134.272 0.178447 0.538159 -0.823737
1.79098 24.6213 -135.426 0.197278 0.547574 -0.813169
1.78742 22.9503 -136.545 0.205776 0.543738 -0.813637
1.80477 21.2469 -137.672 0.224837 0.535708 -0.81392
1.63565 19.5885 -138.81 0.238645 0.530631 -0.813312
0.313398 18.4942 -139.874 0.300971 0.485188 -0.820975
-1.57251 18.3704 -140.869 0.4369 0.449832 -0.778839
-3.34878 18.3713 -141.899 0.451977 0.439117 -0.776462
-5.10306 18.3759 -142.918 0.451971 0.439122 -0.776463
-6.8394 18.3479 -143.96 0.488979 0.448151 -0.748371
-7.65111 18.2846 -144.619 0.600032 0.404199 -0.690351
-3.94265 12.3226 -145.514 0.437035 0.387504 -0.811691
-2.1039 11.9594 -144.745 0.402199 0.382751 -0.831708
-0.165933 11.6061 -144.016 0.34743 0.419132 -0.838821
1.769 11.3392 -143.469 0.267717 0.423446 -0.86546
3.73639 11.1201 -143.016 0.2408 0.413735 -0.877974
5.75957 10.9084 -142.573 0.215588 0.424711 -0.879285
7.74049 10.7371 -142.212 0.190197 0.442366 -0.876435
9.79554 10.5978 -141.903 0.146629 0.433797 -0.889
11.9061 10.4681 -141.617 0.149605 0.432135 -0.889313
13.9099 10.3307 -141.308 0.154011 0.404893 -0.9013
16.0047 10.2358 -141.088 0.0940413 0.390464 -0.915802
18.0334 10.1628 -140.913 0.0937424 0.389574 -0.916212
20.0377 10.0911 -140.741 0.0900994 0.395045 -0.914233
22.1126 10.0183 -140.564 0.0922561 0.391639 -0.915482
24.1372 9.95187 -140.401 0.0800474 0.39386 -0.915678
26.189 9.89307 -140.254 0.0763335 0.393133 -0.916308
28.3248 9.83251 -140.103 0.0733248 0.391235 -0.917365
30.3269 9.77862 -139.969 0.0711104 0.388966 -0.918503
32.3318 9.726 -139.837 0.0694551 0.3876 -0.919207
34.4682 9.67291 -139.705 0.0652966 0.384876 -0.920656
36.6169 9.62094 -139.574 0.0645985 0.383058 -0.921463
38.6487 9.5727 -139.453 0.0636913 0.381677 -0.922099
40.6744 9.52513 -139.334 0.0627738 0.381812 -0.922106
42.7589 9.47724 -139.214 0.0598063 0.38021 -0.922964
44.8591 9.4314 -139.099 0.0582894 0.380379 -0.922992
46.9015 9.38717 -138.988 0.0585181 0.379581 -0.923306
50.7706 12.5254 -137.477 0.0527063 0.378484 -0.924106
48.7563 12.565 -137.575 0.0526534 0.378298 -0.924185
46.7082 12.6061 -137.677 0.055879 0.378489 -0.923917
44.6405 12.6506 -137.787 0.0575414 0.379343 -0.923465
42.5305 12.6967 -137.902 0.0586431 0.379734 -0.923235
40.4382 12.7435 -138.018 0.0609684 0.383117 -0.921686
38.3397 12.792 -138.138 0.0614463 0.38485 -0.920932
36.228 12.8411 -138.258 0.0619429 0.384721 -0.920952
34.1656 12.8897 -138.377 0.0628004 0.385467 -0.920582
31.9727 12.9426 -138.507 0.0615644 0.388336 -0.919459
29.9737 12.9915 -138.626 0.0667575 0.390243 -0.918288
27.9659 13.0431 -138.751 0.0683013 0.391682 -0.917562
25.9034 13.0981 -138.883 0.0697891 0.4051 -0.911605
23.8647 13.1527 -139.014 0.0677907 0.406723 -0.911033
21.7319 13.2177 -139.165 0.0921222 0.414729 -0.90527
19.6324 13.2947 -139.343 0.0849796 0.422769 -0.902245
17.5865 13.3688 -139.51 0.0902339 0.431073 -0.897794
15.4943 13.4469 -139.682 0.0878378 0.43239 -0.897398
13.3016 13.5263 -139.856 0.105793 0.440779 -0.89136
11.2031 13.6529 -140.115 0.155437 0.474792 -0.866263
9.18822 13.799 -140.404 0.1537 0.471381 -0.868433
7.01439 13.9799 -140.745 0.214047 0.47669 -0.852614
5.03189 14.2005 -141.149 0.226329 0.491725 -0.840822
3.08117 14.4261 -141.546 0.226364 0.495295 -0.838715
6.25905 17.155 -139.155 0.192347 0.478396 -0.856819
8.33341 16.9579 -138.822 0.159589 0.479641 -0.86283
10.3508 16.823 -138.583 0.116761 0.446804 -0.88698
12.3605 16.7137 -138.38 0.105139 0.439477 -0.89208
14.4256 16.633 -138.224 0.0739805 0.440195 -0.89485
16.4765 16.5639 -138.084 0.0785121 0.431143 -0.898861
18.6336 16.4894 -137.929 0.0796409 0.42756 -0.900472
20.8285 16.4194 -137.776 0.0647235 0.42592 -0.902443
22.9023 16.3667 -137.658 0.064358 0.402502 -0.913154
24.9341 16.3135 -137.538 0.0660829 0.402037 -0.913236
27.0981 16.2589 -137.411 0.0590432 0.399005 -0.915046
29.0989 16.2135 -137.305 0.0562819 0.396578 -0.916274
31.1641 16.1687 -137.2 0.0572746 0.387504 -0.920087
33.2999 16.1195 -137.082 0.0607251 0.386357 -0.920348
35.3554 16.0709 -136.966 0.0615301 0.386027 -0.920433
37.439 16.0244 -136.853 0.0551277 0.380483 -0.923143
39.5219 15.9789 -136.742 0.0582095 0.37933 -0.923429
41.5875 15.9335 -136.631 0.0578499 0.379468 -0.923394
43.6282 15.8887 -136.522 0.0575322 0.378852 -0.923667
45.6789 15.8454 -136.415 0.0548531 0.377304 -0.924463
47.7388 15.8028 -136.311 0.0546261 0.377336 -0.924464
49.7671 15.7621 -136.21 0.0513417 0.378219 -0.924291
51.9215 15.721 -136.109 0.0503135 0.377135 -0.924791
54.0315 15.68 -136.009 0.0506991 0.375334 -0.925502
54.3313 15.6743 -135.995 0.0494359 0.375188 -0.925629
57.6331 18.8272 -134.526 0.0519492 0.37729 -0.924637
55.5521 18.8684 -134.626 0.0521699 0.37725 -0.924641
53.5064 18.9097 -134.727 0.0516531 0.375006 -0.925582
51.5052 18.9478 -134.82 0.0498788 0.374712 -0.925799
49.4517 18.9869 -134.915 0.0502909 0.374447 -0.925884
47.4482 19.0275 -135.014 0.0549036 0.375885 -0.925038
45.4148 19.07 -135.117 0.0548891 0.375858 -0.92505
43.302 19.1138 -135.224 0.0533196 0.376378 -0.924931
41.2292 19.1583 -135.332 0.058311 0.378357 -0.923821
39.0237 19.2074 -135.45 0.0570783 0.379134 -0.92358
36.9098 19.25 -135.553 0.0485204 0.381081 -0.923268
34.8712 19.2907 -135.649 0.0577308 0.385342 -0.920966
32.8308 19.3388 -135.762 0.0591892 0.385742 -0.920706
30.7968 19.3797 -135.857 0.0445105 0.392655 -0.918608
28.6376 19.4192 -135.948 0.0498611 0.395616 -0.917062
26.6367 19.4636 -136.049 0.0551235 0.397216 -0.916068
24.5383 19.5106 -136.153 0.0624904 0.404401 -0.912444
22.3949 19.5644 -136.27 0.0484319 0.408304 -0.91156
20.3905 19.5996 -136.344 0.038565 0.411592 -0.910552
18.3154 19.652 -136.45 0.078644 0.427367 -0.900651
16.2938 19.7095 -136.565 0.0463431 0.437223 -0.898158
14.1853 19.7598 -136.659 0.0657081 0.445871 -0.892682
12.1098 19.8369 -136.799 0.0758874 0.455588 -0.88695
10.0793 19.9211 -136.943 0.0950425 0.477241 -0.873618
8.07327 20.0368 -137.134 0.110188 0.491184 -0.864059
7.03816 20.0989 -137.233 0.136559 0.505337 -0.852048
6.94893 23.1423 -135.524 0.0683939 0.486456 -0.871024
9.07317 23.0567 -135.395 0.0705692 0.454886 -0.887749
11.216 22.9751 -135.264 0.0736886 0.455466 -0.887198
13.249 22.9137 -135.16 0.0463778 0.437492 -0.898025
15.2762 22.8664 -135.082 0.0444167 0.435479 -0.899102
17.3158 22.8251 -135.007 0.0340173 0.421929 -0.90599
19.3298 22.7927 -134.947 0.0382753 0.410317 -0.911139
21.3935 22.7573 -134.877 0.0378725 0.410929 -0.910881
23.4571 22.7201 -134.8 0.0507108 0.406205 -0.912374
25.5301 22.6764 -134.707 0.041683 0.399798 -0.915655
27.6135 22.637 -134.62 0.0473202 0.394096 -0.91785
29.7395 22.5974 -134.533 0.0445928 0.392645 -0.918608
31.761 22.561 -134.45 0.0446532 0.392198 -0.918796
33.8438 22.5234 -134.363 0.0464361 0.38442 -0.921989
35.898 22.4841 -134.272 0.0482799 0.380864 -0.92337
37.9864 22.4445 -134.179 0.0484862 0.38103 -0.923291
40.0527 22.4018 -134.078 0.0574604 0.378372 -0.923869
42.1633 22.3558 -133.967 0.0524325 0.377308 -0.924602
44.2746 22.3139 -133.867 0.0538563 0.375923 -0.925085
46.3416 22.2704 -133.762 0.054508 0.375723 -0.925128
48.3713 22.2295 -133.663 0.0517024 0.374502 -0.925784
50.4119 22.1898 -133.567 0.050559 0.374485 -0.925854
52.4202 22.1509 -133.472 0.0529499 0.375331 -0.925377
54.5087 22.1077 -133.368 0.0545029 0.376436 -0.924838
55.2531 22.0922 -133.33 0.0544917 0.376425 -0.924843
50.5997 25.4087 -132.258 0.0505968 0.371848 -0.926914
48.452 25.4498 -132.357 0.050427 0.372637 -0.926606
46.2966 25.4925 -132.46 0.0517993 0.374275 -0.92587
44.1785 25.5351 -132.562 0.0523406 0.376252 -0.925038
42.1542 25.5749 -132.657 0.0505456 0.376375 -0.925088
40.0114 25.6187 -132.761 0.0544545 0.379256 -0.923688
37.9209 25.659 -132.856 0.0474738 0.38152 -0.923141
35.9134 25.6963 -132.943 0.0469402 0.382564 -0.922736
33.7753 25.7353 -133.033 0.0394624 0.38377 -0.922585
31.7614 25.7636 -133.096 0.0337143 0.384086 -0.922682
29.7199 25.7971 -133.171 0.044341 0.391174 -0.919248
27.6717 25.8346 -133.254 0.0441387 0.391174 -0.919258
25.5778 25.87 -133.331 0.0381515 0.39087 -0.919655
23.4213 25.8987 -133.388 0.0243875 0.404408 -0.914253
21.3602 25.9306 -133.452 0.0388176 0.409061 -0.911681
19.3471 25.9656 -133.521 0.0310061 0.41146 -0.9109
17.1794 25.9886 -133.556 0.0161277 0.415504 -0.909449
15.0586 26.0126 -133.591 0.0281419 0.418528 -0.907768
12.926 26.057 -133.665 0.0427048 0.430938 -0.90137
10.804 26.0996 -133.732 0.0167036 0.43754 -0.899044
8.76806 26.1238 -133.755 0.0267708 0.461093 -0.886948
7.01569 26.173 -133.823 0.0521397 0.488048 -0.871258
7.12991 29.2356 -132.198 -0.0077093 0.434614 -0.900584
9.19842 29.2326 -132.217 -0.00770559 0.434612 -0.900585
11.2469 29.2242 -132.221 0.0244299 0.438287 -0.898503
13.2816 29.1895 -132.166 0.0228732 0.417724 -0.908286
15.406 29.1668 -132.136 0.0172303 0.415222 -0.909557
17.435 29.1477 -132.109 0.0157548 0.414451 -0.909935
19.468 29.1295 -132.082 0.0192298 0.41348 -0.91031
21.5057 29.1017 -132.03 0.024265 0.39986 -0.916255
23.5182 29.0837 -131.997 0.017135 0.398912 -0.916829
25.5382 29.0662 -131.964 0.0237768 0.396678 -0.91765
27.6608 29.0329 -131.893 0.0439873 0.391089 -0.919301
29.6785 29.0013 -131.825 0.0328436 0.383429 -0.922986
31.8052 28.9725 -131.761 0.0328847 0.383322 -0.923029
33.9881 28.9419 -131.693 0.0409231 0.382205 -0.923171
36.0764 28.9036 -131.605 0.0469278 0.382481 -0.922771
38.1333 28.8658 -131.517 0.0448794 0.381301 -0.923361
40.2575 28.8308 -131.435 0.0405075 0.37657 -0.925502
42.3855 28.7937 -131.348 0.0483835 0.371477 -0.92718
44.3969 28.755 -131.256 0.0512443 0.371598 -0.926978
45.8298 28.7264 -131.187 0.0522235 0.371405 -0.927001
40.1796 32.0505 -130.129 0.0404315 0.376517 -0.925527
38.0066 32.0853 -130.21 0.0404404 0.376476 -0.925543
35.9925 32.1178 -130.285 0.0404052 0.37699 -0.925336
33.8337 32.1535 -130.367 0.0372262 0.38078 -0.923916
31.8292 32.1814 -130.429 0.0327581 0.380397 -0.924243
29.7941 32.2097 -130.492 0.0349888 0.377789 -0.92523
27.5835 32.2408 -130.56 0.0295308 0.378942 -0.924949
25.5455 32.2619 -130.603 0.0193507 0.381915 -0.923995
23.5246 32.2798 -130.638 0.0193488 0.381891 -0.924005
21.3625 32.2983 -130.672 0.0124779 0.383804 -0.92333
19.2809 32.3093 -130.684 0.0111198 0.390971 -0.920336
17.2314 32.3271 -130.712 0.0183843 0.397446 -0.917441
15.1958 32.3454 -130.739 0.0120843 0.396527 -0.917944
13.1937 32.3601 -130.757 0.0109989 0.396205 -0.918096
11.1677 32.3633 -130.746 -0.0162027 0.421158 -0.906843
9.13806 32.3617 -130.724 -0.00554727 0.426699 -0.904377
7.13683 32.3628 -130.706 -0.0187939 0.439653 -0.897971
7.04452 32.3622 -130.704 -0.0258373 0.438266 -0.898474
7.12635 35.4664 -129.168 -0.0448284 0.42661 -0.903324
9.20402 35.4999 -129.257 -0.030578 0.405613 -0.913533
11.2148 35.5127 -129.3 -0.0201023 0.406727 -0.913329
13.2407 35.5261 -129.343 -0.023874 0.418246 -0.90802
15.2669 35.5286 -129.361 0.0119403 0.396709 -0.917867
17.3066 35.5161 -129.344 0.00593317 0.388277 -0.921524
19.3443 35.5072 -129.335 0.00585503 0.388233 -0.921543
21.3714 35.4985 -129.325 0.00586247 0.388203 -0.921555
23.4351 35.4887 -129.312 0.0136328 0.384841 -0.922882
25.6009 35.4701 -129.275 0.0202356 0.381873 -0.923993
27.7666 35.4496 -129.233 0.0219468 0.382334 -0.923764
29.8415 35.4258 -129.182 0.0338679 0.376621 -0.925748
31.9385 35.3969 -129.117 0.0320747 0.37413 -0.926821
33.9897 35.3693 -129.055 0.041045 0.373714 -0.926635
34.4001 35.3626 -129.039 0.0416625 0.373114 -0.926849
27.8612 38.6612 -127.915 0.0163707 0.366699 -0.930195
25.7056 38.6783 -127.95 0.0198722 0.374587 -0.926979
23.5954 38.6916 -127.974 0.0141463 0.372861 -0.927779
21.5081 38.7034 -127.994 0.0107385 0.365436 -0.930775
19.4359 38.7162 -128.017 0.0128527 0.364282 -0.9312
17.3735 38.729 -128.039 0.010811 0.365248 -0.930847
15.2236 38.7372 -128.05 -0.0122575 0.36818 -0.929674
13.1578 38.7184 -127.993 -0.0311522 0.368256 -0.929202
11.1253 38.7009 -127.941 -0.0207144 0.383811 -0.923179
9.10274 38.682 -127.886 -0.0494704 0.388777 -0.920003
7.16546 38.6439 -127.787 -0.0536336 0.393661 -0.91769
7.20981 41.8756 -126.533 -0.0436178 0.355844 -0.933527
9.27383 41.9061 -126.615 -0.0395725 0.355052 -0.934009
11.3403 41.924 -126.666 -0.032363 0.36462 -0.930594
13.3442 41.9462 -126.728 -0.0331711 0.365926 -0.930053
15.3453 41.9627 -126.777 0.00236153 0.36893 -0.929454
17.4072 41.9553 -126.766 0.00774451 0.367392 -0.930034
19.3862 41.947 -126.752 0.008772 0.366283 -0.930462
7.90344 45.1264 -125.326 -0.0436318 0.355847 -0.933525
7.17516 45.1154 -125.296 -0.0436797 0.355775 -0.93355
-1.49356 8.45807 -146.057 0.3538 0.344262 -0.86966
0.524861 8.2193 -145.449 0.301768 0.369915 -0.878692
2.48562 7.98961 -144.885 0.284444 0.371211 -0.883908
4.48396 7.79117 -144.399 0.205099 0.393921 -0.895969
6.4584 7.64048 -144.028 0.19938 0.409351 -0.890325
8.56414 7.47908 -143.634 0.20469 0.396822 -0.894782
10.6174 7.32852 -143.264 0.192618 0.375555 -0.906563
12.6152 7.1901 -142.923 0.159844 0.391529 -0.906176
14.7345 7.0752 -142.632 0.130103 0.395586 -0.909167
16.7495 6.98577 -142.403 0.100539 0.392493 -0.914244
18.7526 6.9186 -142.225 0.0937005 0.392135 -0.915123
20.7958 6.85114 -142.048 0.0895615 0.390929 -0.916053
22.8072 6.78837 -141.886 0.0843365 0.389838 -0.917014
25.0024 6.72228 -141.715 0.0816284 0.390379 -0.917028
27.0474 6.66386 -141.563 0.0784844 0.391198 -0.916954
29.2163 6.60212 -141.404 0.0771396 0.390993 -0.917156
31.3752 6.5445 -141.256 0.0718094 0.387526 -0.919058
33.2624 6.49406 -141.127 0.0707551 0.385209 -0.920113
33.3469 6.49188 -141.122 0.0707261 0.385223 -0.920109
