-2.28531 14.8144 -146.418 0.373056 0.418572 -0.828025
-0.974681 13.2657 -146.607 0.368221 0.405681 -0.836538
0.269349 11.5952 -146.846 0.349965 0.395287 -0.849278
1.47523 9.96935 -147.193 0.313299 0.421014 -0.851229
2.85177 8.45702 -147.377 0.253388 0.370924 -0.893241
4.69104 7.33759 -147.38 0.236486 0.391424 -0.889304
6.4964 6.40157 -147.331 0.218872 0.398242 -0.890785
8.38771 5.51271 -147.285 0.18897 0.391374 -0.90062
10.3993 5.1929 -147.025 0.179331 0.389361 -0.903456
12.5511 5.13085 -146.646 0.1556 0.390733 -0.907258
14.5852 5.23297 -146.278 0.141855 0.393635 -0.908256
16.5632 5.26858 -145.966 0.112369 0.397144 -0.910851
18.6963 5.26538 -145.718 0.10484 0.388664 -0.915395
20.789 5.23337 -145.505 0.0901571 0.390225 -0.916293
22.8149 5.22771 -145.311 0.0891339 0.391917 -0.915672
24.8979 5.19266 -145.128 0.0829888 0.390233 -0.916967
27.011 5.21771 -144.931 0.0799767 0.389447 -0.91757
29.0523 5.29319 -144.721 0.0801012 0.388134 -0.918115
30.9989 5.77841 -144.347 0.0776256 0.388365 -0.91823
32.9995 6.4321 -143.905 0.0746393 0.386892 -0.919099
34.8542 7.17872 -143.445 0.0727717 0.384025 -0.92045
36.6831 8.10939 -142.922 0.0669974 0.383664 -0.921039
38.4451 9.04889 -142.402 0.065581 0.385242 -0.920482
40.3011 10.009 -141.875 0.0629235 0.382533 -0.921797
42.0886 10.9472 -141.363 0.0634091 0.382436 -0.921804
43.7436 12.0348 -140.802 0.0602651 0.380619 -0.922766
45.3867 13.1354 -140.241 0.0592369 0.379698 -0.923212
47.0269 14.2722 -139.671 0.0563029 0.377919 -0.924125
48.7205 15.4967 -139.07 0.0554639 0.377391 -0.924391
50.3276 16.7335 -138.469 0.0542624 0.376339 -0.924892
51.7752 18.0185 -137.863 0.0530684 0.376386 -0.924942
53.3643 19.3796 -137.217 0.0547713 0.37727 -0.924482
52.3332 20.6903 -136.743 0.0537842 0.376294 -0.924938
50.6664 21.791 -136.392 0.0528985 0.3755 -0.925312
48.9743 22.9556 -136.017 0.0522779 0.374543 -0.925735
47.2975 24.0916 -135.653 0.0523788 0.373794 -0.926032
45.6111 25.1365 -135.327 0.0534634 0.37182 -0.926764
43.8241 26.2106 -134.99 0.0440081 0.372081 -0.927156
41.9782 27.2267 -134.67 0.0440453 0.372252 -0.927086
40.2028 28.1758 -134.368 0.0391982 0.377957 -0.924992
38.4542 29.1708 -134.038 0.0472011 0.382444 -0.922772
36.6331 30.2022 -133.703 0.0497253 0.385663 -0.921299
34.8894 31.1448 -133.403 0.0497272 0.385646 -0.921306
33.0371 32.1832 -133.071 0.0539507 0.385936 -0.920947
31.214 33.1777 -132.756 0.0487867 0.384955 -0.921645
29.3763 34.1756 -132.421 0.0385154 0.386806 -0.921357
27.4656 35.0187 -132.114 0.00594216 0.405452 -0.914089
25.4457 35.7628 -131.781 -0.00363446 0.407925 -0.913008
23.5452 36.483 -131.447 0.00152183 0.409254 -0.912419
21.5783 37.1824 -131.14 0.00278588 0.408283 -0.912851
19.6418 37.9104 -130.831 0.00711127 0.385249 -0.922766
17.7474 38.62 -130.563 0.011157 0.375235 -0.926863
15.8804 39.3045 -130.295 -0.0133551 0.369364 -0.929189
13.9732 39.9734 -129.981 -0.02438 0.370718 -0.928425
11.9568 40.3874 -129.764 -0.0206974 0.367653 -0.929733
9.91921 40.6895 -129.617 -0.0118671 0.359158 -0.933201
7.86537 40.9613 -129.461 -0.0305773 0.348924 -0.936652
5.68296 41.1391 -129.322 -0.0310969 0.348654 -0.936735
5.65216 39.166 -130.056 -0.0314294 0.351146 -0.935791
5.65011 37.3014 -130.83 -0.0371178 0.405435 -0.91337
5.64836 35.4737 -131.719 -0.029606 0.455708 -0.889637
5.64104 33.6371 -132.662 -0.0291513 0.456574 -0.889208
5.6397 31.809 -133.604 0.00432098 0.474161 -0.880415
5.64607 29.9115 -134.644 0.0429264 0.484919 -0.873505
5.60363 27.9848 -135.726 0.0585671 0.493452 -0.867799
5.60176 26.1549 -136.803 0.0883349 0.509412 -0.855977
5.52046 24.3401 -137.919 0.115673 0.523683 -0.844024
5.51922 22.5588 -139.019 0.157283 0.523429 -0.837427
5.52222 20.8105 -140.118 0.164597 0.526872 -0.833855
5.38007 19.0313 -141.227 0.165295 0.484609 -0.858956
4.73117 17.3209 -142.313 0.206274 0.496187 -0.843356
3.5485 16.0721 -143.358 0.23439 0.487213 -0.84124
1.94794 15.2751 -144.265 0.238227 0.48822 -0.839577
0.112603 14.9913 -145.178 0.431698 0.454865 -0.778931
-1.74438 14.9249 -146.121 0.369385 0.417735 -0.830092
-2.24543 14.8847 -146.365 0.371732 0.418282 -0.828765
-3.0969 18.2455 -144.983 0.435315 0.475933 -0.764192
-1.32936 18.2544 -143.951 0.441308 0.480221 -0.758047
0.55029 18.3891 -142.88 0.309146 0.484245 -0.818493
1.76686 19.554 -141.825 0.231806 0.500071 -0.834383
1.86858 21.2806 -140.678 0.229633 0.535776 -0.812534
1.87511 23.0105 -139.529 0.208354 0.54367 -0.813026
1.89288 24.674 -138.408 0.203895 0.546821 -0.81204
1.90347 26.3411 -137.291 0.193135 0.546652 -0.814781
1.92607 28.134 -136.098 0.171646 0.53548 -0.826921
1.92989 29.8337 -134.986 0.137643 0.52697 -0.838664
1.89789 31.5893 -133.859 0.0982659 0.532605 -0.840572
1.9233 33.3811 -132.77 0.0281554 0.510489 -0.859423
1.92756 35.2199 -131.73 -0.0241231 0.456747 -0.88927
1.92379 37.1493 -130.76 -0.0276978 0.424573 -0.904965
1.90655 39.0493 -129.975 -0.031421 0.349545 -0.936392
1.9097 41.0252 -129.244 -0.0235138 0.344562 -0.938469
1.93696 42.9906 -128.526 -0.0205387 0.342615 -0.939251
1.92823 44.9388 -127.815 -0.0205472 0.342602 -0.939256
3.59363 45.1986 -127.757 -0.0209129 0.342976 -0.939111
5.62424 44.808 -127.955 -0.0294708 0.348473 -0.936856
7.8194 44.5094 -128.122 -0.0121365 0.358569 -0.933424
9.84748 44.2012 -128.261 -0.00902906 0.360143 -0.932853
11.8719 43.8958 -128.399 -0.00907023 0.360179 -0.932839
13.8665 43.596 -128.537 -0.0136934 0.366276 -0.930401
15.7962 43.049 -128.79 -0.00716377 0.371684 -0.928326
17.7245 42.3247 -129.064 0.0112063 0.375239 -0.926861
19.6505 41.6252 -129.324 0.0111814 0.375249 -0.926856
21.5554 40.9084 -129.591 0.0111934 0.375253 -0.926855
23.4291 40.2051 -129.853 0.0112183 0.375244 -0.926858
25.3237 39.4805 -130.124 0.00823099 0.381225 -0.924424
27.3732 38.7115 -130.443 0.000104808 0.402414 -0.915454
29.2323 37.9716 -130.8 0.00455153 0.406193 -0.91376
31.1478 37.1502 -131.098 0.0407596 0.385408 -0.921839
32.9769 36.1841 -131.398 0.0543417 0.387054 -0.920455
34.7802 35.1866 -131.721 0.0424085 0.38186 -0.923245
36.576 34.183 -132.055 0.0385876 0.378824 -0.924664
38.3251 33.2298 -132.374 0.0382517 0.37902 -0.924598
40.1322 32.2224 -132.712 0.0382686 0.378997 -0.924606
41.8622 31.2401 -133.043 0.0382401 0.378975 -0.924617
43.679 30.2394 -133.377 0.0394413 0.375754 -0.92588
45.5159 29.2362 -133.691 0.0523207 0.370349 -0.927417
47.3552 28.1815 -134.004 0.055336 0.370607 -0.92714
49.1276 27.0982 -134.336 0.052522 0.373521 -0.926134
50.8543 25.8751 -134.732 0.053795 0.374527 -0.925654
52.5838 24.708 -135.102 0.0551449 0.374588 -0.92555
54.3444 23.4977 -135.487 0.0551459 0.374544 -0.925568
56.0038 22.3198 -135.864 0.0551851 0.374226 -0.925694
57.7095 21.1364 -136.24 0.0560269 0.374497 -0.925534
59.2921 19.942 -136.632 0.056429 0.379572 -0.92344
57.9251 18.5283 -137.292 0.0540175 0.379472 -0.923625
56.4281 17.2251 -137.916 0.0528012 0.381433 -0.922887
54.8893 15.9572 -138.527 0.05023 0.379719 -0.923736
53.3758 14.6086 -139.159 0.0521666 0.375709 -0.925268
51.8941 13.3702 -139.748 0.0543068 0.377302 -0.924497
50.273 12.1991 -140.322 0.055159 0.376159 -0.924912
48.6215 10.9785 -140.918 0.0570672 0.377055 -0.924431
46.8832 9.83832 -141.499 0.0621611 0.377996 -0.923718
45.1766 8.65786 -142.098 0.0625888 0.379133 -0.923223
43.4797 7.61062 -142.645 0.064366 0.379697 -0.922869
41.6841 6.67343 -143.156 0.0652216 0.380687 -0.922401
39.9337 5.7844 -143.65 0.0661466 0.381886 -0.921839
38.0688 4.81829 -144.184 0.066768 0.381685 -0.921878
36.1698 3.81287 -144.743 0.0723393 0.38231 -0.921198
34.3193 3.16229 -145.164 0.07611 0.383921 -0.920224
32.4459 2.56556 -145.574 0.0786875 0.386376 -0.918979
30.5501 2.00311 -145.974 0.0795706 0.386255 -0.918953
28.5099 1.80248 -146.236 0.0804215 0.386039 -0.91897
26.4197 1.78726 -146.426 0.0843656 0.386486 -0.918429
24.2359 1.80491 -146.623 0.0853646 0.382363 -0.92006
22.1333 1.8087 -146.813 0.0831705 0.381684 -0.920543
20.0965 1.81234 -146.996 0.0850907 0.382512 -0.920024
18.0297 1.80959 -147.214 0.10466 0.372625 -0.922061
15.9678 1.81062 -147.497 0.144959 0.386089 -0.911001
13.9496 1.75103 -147.858 0.153725 0.390069 -0.907863
11.7939 1.75349 -148.222 0.153726 0.390065 -0.907864
9.74445 1.80224 -148.566 0.175596 0.380942 -0.907771
7.65731 2.05919 -148.922 0.218175 0.383094 -0.897573
5.78823 3.01374 -148.978 0.225875 0.384591 -0.895025
3.9785 3.93526 -149.038 0.226637 0.385568 -0.894412
2.17643 4.87434 -149.09 0.226384 0.386169 -0.894217
0.529668 6.06389 -149.067 0.298747 0.335408 -0.893449
-0.832944 7.53065 -149.05 0.370001 0.33578 -0.866228
-1.97915 9.28986 -148.945 0.427202 0.307822 -0.850127
-3.14513 11.0938 -148.734 0.430701 0.399686 -0.809159
-4.49985 12.7297 -148.662 0.437574 0.404744 -0.802932
-5.75538 14.3089 -148.505 0.449085 0.425393 -0.785523
-6.804 16.2565 -148.335 0.64221 0.335695 -0.689112
-7.62073 18.1121 -148.234 0.647846 0.32286 -0.689969
-6.1415 18.1784 -146.819 0.60663 0.345249 -0.716102
-4.4719 18.2124 -145.697 0.411428 0.421361 -0.807952
-3.23543 18.2441 -145.063 0.422715 0.464268 -0.777998
1.94817 12.0584 -145.995 0.272228 0.417784 -0.866804
3.91604 11.8328 -145.512 0.255871 0.412389 -0.874337
6.00242 11.6116 -145.039 0.219922 0.428231 -0.8765
8.00426 11.4389 -144.668 0.188775 0.420229 -0.887565
9.98534 11.2966 -144.353 0.164773 0.411508 -0.896388
11.9606 11.1655 -144.064 0.156217 0.409178 -0.898982
13.959 11.0494 -143.802 0.127222 0.406601 -0.904705
16.0647 10.9425 -143.559 0.110426 0.400446 -0.909642
18.0988 10.8587 -143.363 0.100558 0.399264 -0.911305
20.0936 10.7834 -143.186 0.0937509 0.396658 -0.913167
22.3003 10.706 -142.999 0.0869996 0.397308 -0.913552
24.4157 10.638 -142.836 0.0808328 0.395365 -0.91496
26.4101 10.5768 -142.688 0.0768434 0.393571 -0.916077
28.5716 10.515 -142.536 0.075664 0.393087 -0.916383
30.6754 10.4557 -142.391 0.0717343 0.388617 -0.918603
32.7423 10.3995 -142.253 0.0718009 0.388233 -0.91876
34.9352 10.3428 -142.113 0.0674544 0.385771 -0.920125
36.9388 10.2925 -141.989 0.065272 0.385271 -0.920492
42.5123 13.4043 -140.317 0.0603308 0.380548 -0.922791
40.4511 13.452 -140.435 0.0615268 0.383471 -0.921501
38.4436 13.4987 -140.55 0.0614332 0.384808 -0.92095
36.4288 13.5455 -140.664 0.0620761 0.385604 -0.920574
34.3862 13.5953 -140.785 0.0662003 0.387742 -0.919388
32.24 13.6508 -140.919 0.0691455 0.388381 -0.918901
30.1439 13.7071 -141.053 0.0663335 0.389517 -0.918627
28.0883 13.7595 -141.177 0.0656256 0.391511 -0.91783
26.0139 13.8172 -141.314 0.0769172 0.39843 -0.913968
23.9677 13.8815 -141.465 0.0814638 0.399772 -0.912988
21.897 13.9473 -141.616 0.0803959 0.403286 -0.911536
19.844 14.0195 -141.779 0.0900773 0.406353 -0.909265
17.8423 14.0966 -141.95 0.0945101 0.404873 -0.909476
15.8308 14.1769 -142.126 0.0963232 0.408695 -0.907574
13.675 14.2841 -142.355 0.130659 0.419936 -0.898099
11.5736 14.4062 -142.608 0.136482 0.421467 -0.896515
9.54376 14.5487 -142.893 0.173812 0.433943 -0.884015
7.56438 14.7017 -143.192 0.166753 0.474933 -0.864079
5.50027 14.8737 -143.517 0.19565 0.480234 -0.855042
5.05714 14.9215 -143.604 0.227998 0.485322 -0.844085
7.21531 17.8569 -141.525 0.163615 0.474621 -0.86485
9.21285 17.7045 -141.258 0.133868 0.468627 -0.873194
11.2925 17.5867 -141.042 0.117903 0.456056 -0.882106
13.4161 17.468 -140.814 0.112955 0.449913 -0.8859
15.4791 17.3903 -140.661 0.0649214 0.43838 -0.896442
17.5444 17.3198 -140.515 0.0904913 0.419756 -0.903115
19.5824 17.2405 -140.348 0.0896034 0.419414 -0.903362
21.602 17.1706 -140.196 0.076853 0.419004 -0.904726
23.648 17.1059 -140.053 0.072064 0.412625 -0.908046
25.6752 17.0543 -139.938 0.0624075 0.39739 -0.915525
27.6817 17.0024 -139.821 0.0641814 0.396513 -0.915783
29.7169 16.9502 -139.7 0.0637916 0.395384 -0.916298
31.8146 16.8973 -139.577 0.0628995 0.390295 -0.918539
33.9565 16.8449 -139.452 0.062097 0.385676 -0.920542
35.9677 16.7962 -139.336 0.0622825 0.385625 -0.920551
38.097 16.7469 -139.217 0.0577742 0.382727 -0.922053
40.098 16.7023 -139.109 0.0579125 0.38137 -0.922607
42.2047 16.656 -138.996 0.0582811 0.381239 -0.922638
44.3006 16.6093 -138.882 0.0569802 0.379565 -0.923409
46.408 16.5647 -138.773 0.0555072 0.377376 -0.924395
47.0251 16.5518 -138.741 0.055516 0.377387 -0.92439
50.5799 19.7267 -137.237 0.0533375 0.376277 -0.924971
48.3748 19.7712 -137.346 0.0538673 0.376787 -0.924732
46.3521 19.8135 -137.449 0.0555231 0.377581 -0.924311
44.2949 19.8569 -137.554 0.0540576 0.378228 -0.924133
42.2907 19.897 -137.651 0.0557045 0.380543 -0.923084
40.253 19.9425 -137.761 0.0579177 0.381259 -0.922652
38.0769 19.9904 -137.875 0.0546015 0.384152 -0.921654
36.061 20.0318 -137.973 0.0554245 0.383421 -0.921909
34.008 20.0811 -138.09 0.0622283 0.386886 -0.920026
31.9368 20.1281 -138.199 0.0504353 0.389285 -0.919736
29.9298 20.1707 -138.297 0.055901 0.390485 -0.91891
27.8516 20.2216 -138.412 0.0637664 0.397279 -0.91548
25.8235 20.2739 -138.529 0.0588993 0.397672 -0.915635
23.7823 20.3196 -138.628 0.0520578 0.399108 -0.915425
21.7211 20.3658 -138.726 0.0556357 0.400162 -0.914754
19.6872 20.4275 -138.855 0.0864181 0.421019 -0.902926
17.5982 20.4934 -138.99 0.0649519 0.438374 -0.896443
15.5879 20.5528 -139.106 0.0648511 0.438206 -0.896532
13.4532 20.623 -139.236 0.0834781 0.437117 -0.895522
11.4537 20.721 -139.413 0.0989615 0.474997 -0.874405
9.44334 20.8103 -139.567 0.0803398 0.499491 -0.862586
7.41641 20.9031 -139.717 0.105413 0.513797 -0.851411
7.40628 20.9036 -139.718 0.107968 0.51814 -0.848454
7.41653 23.9481 -137.941 0.078847 0.496939 -0.864196
9.57808 23.8583 -137.799 0.0725371 0.488739 -0.869409
11.6498 23.7952 -137.698 0.043243 0.465917 -0.883771
13.7014 23.7563 -137.636 0.0314849 0.460658 -0.887019
15.7153 23.7138 -137.562 0.0608766 0.436422 -0.89768
17.7164 23.6546 -137.45 0.0627134 0.432038 -0.899672
19.9163 23.6116 -137.368 0.0276784 0.414064 -0.909827
21.9848 23.5782 -137.303 0.0479117 0.404406 -0.913324
24.1081 23.532 -137.206 0.0507617 0.40228 -0.914108
26.2962 23.4842 -137.104 0.0529438 0.397505 -0.916071
28.4184 23.4364 -136.999 0.0543469 0.390343 -0.919064
30.5182 23.3903 -136.896 0.0515995 0.389436 -0.919607
32.6255 23.3469 -136.798 0.0504435 0.389569 -0.919615
34.7453 23.2998 -136.689 0.0569195 0.38402 -0.921569
36.8138 23.2573 -136.591 0.0510922 0.382967 -0.922348
38.876 23.2156 -136.493 0.0528117 0.382731 -0.922349
40.8891 23.1709 -136.387 0.0573887 0.381475 -0.922596
43.0482 23.1278 -136.283 0.0487577 0.378589 -0.92428
45.1797 23.0858 -136.183 0.0547095 0.377316 -0.924467
45.6308 23.0764 -136.16 0.0543538 0.376755 -0.924717
39.6961 26.4391 -135.109 0.0518176 0.381848 -0.922771
37.5797 26.4818 -135.209 0.0505761 0.384618 -0.921689
35.4354 26.5244 -135.307 0.0498826 0.385523 -0.921349
33.4188 26.5649 -135.4 0.049646 0.385162 -0.921512
31.3824 26.6056 -135.491 0.0488981 0.384813 -0.921698
29.3509 26.6457 -135.58 0.0455245 0.389254 -0.920005
27.3201 26.6823 -135.659 0.0430519 0.397322 -0.916669
25.2967 26.7204 -135.74 0.0461526 0.401014 -0.914908
23.1959 26.7637 -135.831 0.0394352 0.410815 -0.910866
21.1939 26.7908 -135.883 0.0275002 0.414221 -0.909761
19.1119 26.8182 -135.932 0.0273656 0.415767 -0.909059
17.0271 26.839 -135.965 0.00834133 0.429877 -0.902849
14.9006 26.8607 -135.997 0.0243272 0.44251 -0.896434
12.7257 26.8924 -136.047 0.0260709 0.448928 -0.893187
10.5998 26.9289 -136.101 0.0330791 0.472116 -0.880915
8.53845 26.9651 -136.149 0.0332231 0.479653 -0.876829
7.51009 26.9872 -136.18 0.0461871 0.487432 -0.871938
7.53121 30.0613 -134.493 0.0140506 0.467655 -0.883799
9.63104 30.0535 -134.5 -0.00732049 0.445757 -0.895124
11.6386 30.0496 -134.511 0.00795033 0.437387 -0.899238
13.675 30.0248 -134.475 0.0203467 0.438753 -0.898377
15.8116 30.0103 -134.46 0.00600151 0.430276 -0.902677
18.0129 30.0042 -134.46 -0.00329472 0.429959 -0.902842
20.0233 29.9953 -134.45 0.0266417 0.416402 -0.90879
22.1138 29.9686 -134.401 0.02644 0.416444 -0.908777
24.1824 29.9508 -134.37 0.00327582 0.410492 -0.911858
26.2376 29.9312 -134.332 0.0378783 0.387176 -0.921228
28.2835 29.8975 -134.261 0.0387108 0.386395 -0.921521
30.3161 29.8633 -134.186 0.0456078 0.386956 -0.92097
32.4029 29.822 -134.094 0.0494572 0.384681 -0.921724
33.6347 29.796 -134.036 0.0525936 0.385981 -0.921006
27.4094 33.1427 -132.93 0.028366 0.398038 -0.91693
25.2885 33.152 -132.945 -0.00100583 0.407001 -0.913427
23.116 33.1542 -132.942 0.000619927 0.407425 -0.913239
21.1136 33.1652 -132.958 0.0125271 0.419443 -0.907695
19.0414 33.1704 -132.961 0.00421982 0.424172 -0.905572
16.9803 33.1773 -132.965 0.00628693 0.414772 -0.909904
14.9713 33.1851 -132.97 0.00413279 0.412531 -0.910934
12.7736 33.1934 -132.972 -0.00150205 0.421707 -0.906731
10.7456 33.1931 -132.956 -0.0079787 0.438795 -0.898552
8.64329 33.194 -132.939 -0.00695408 0.438568 -0.898671
7.57192 33.1947 -132.93 -0.00674524 0.441571 -0.897201
7.65862 36.3223 -131.359 -0.0377386 0.429456 -0.902299
9.66789 36.343 -131.42 -0.0309059 0.422841 -0.905677
11.6984 36.3534 -131.457 -0.0129176 0.419412 -0.907704
13.7109 36.3622 -131.489 -0.0149995 0.424119 -0.905482
15.7712 36.3703 -131.518 -0.00806912 0.418718 -0.90808
17.9588 36.3651 -131.517 0.00431117 0.409873 -0.912133
18.7141 36.3628 -131.515 0.0032318 0.409246 -0.912418
29.7588 7.2449 -143.829 0.079267 0.390289 -0.917274
27.7404 7.30482 -143.979 0.0794592 0.390918 -0.916989
25.7055 7.36524 -144.132 0.0801019 0.390992 -0.916902
23.7099 7.42687 -144.287 0.0854996 0.390458 -0.916642
21.7047 7.49003 -144.448 0.08847 0.391796 -0.915789
19.6612 7.56071 -144.627 0.0980205 0.391901 -0.914771
17.6319 7.63637 -144.819 0.102644 0.394479 -0.913154
15.4403 7.7339 -145.062 0.136136 0.39541 -0.90836
13.3271 7.84554 -145.337 0.149674 0.400945 -0.903793
11.151 7.97983 -145.663 0.163364 0.403863 -0.900115
9.16359 8.11422 -145.987 0.190461 0.401141 -0.895997
7.17348 8.2653 -146.354 0.193036 0.389199 -0.9007
6.46814 8.31998 -146.486 0.207517 0.393174 -0.89574
6.44149 8.32213 -146.492 0.206258 0.393829 -0.895744
