-1.27238 28.8136 -0.975468 -0.47256 0.856806 -0.183414
-1.23486 28.8975 -0.446334 -0.4496 0.879197 0.0115762
-1.12569 28.8985 0.15851 -0.527194 0.827225 0.174608
-0.862414 28.8398 0.761924 -0.439197 0.863236 0.248857
-0.282605 28.899 1.00005 -0.120538 0.962794 0.24185
0.287322 28.9736 0.882224 0.0120279 0.957697 0.287526
0.923093 28.932 0.586072 0.197953 0.965614 0.168099
1.50344 28.8277 0.244298 0.404533 0.908981 0.10053
1.92861 28.6273 -0.135486 0.542995 0.836269 0.0443111
2.34797 28.3945 -0.57457 0.591324 0.801451 0.0420499
2.57599 28.1484 -1.04365 0.676977 0.730868 -0.0861064
2.42116 28.0926 -1.51128 0.597105 0.739734 -0.299972
2.10228 28.0938 -1.9598 0.469424 0.760358 -0.442331
1.61094 28.0336 -2.44257 0.385542 0.748827 -0.538533
1.15637 28.0281 -2.76497 0.393878 0.716505 -0.575743
0.654917 28.024 -2.92963 0.103609 0.799673 -0.590968
-0.0628768 28.0088 -3.00813 -0.14052 0.688609 -0.711387
-0.617584 28.0116 -2.87466 -0.159447 0.78819 -0.594419
-0.9944 28.2237 -2.44464 -0.282542 0.771794 -0.569653
-1.12297 28.4504 -2.01598 -0.303475 0.838712 -0.452178
-1.21569 28.6446 -1.5136 -0.442265 0.80774 -0.389819
-1.27064 28.807 -0.998722 -0.460294 0.841831 -0.281669
-3.90305 26.3342 -0.814192 -0.720543 0.692987 -0.0242149
-3.92356 26.2586 -1.34941 -0.706616 0.699523 -0.10292
-3.95917 26.1273 -1.84057 -0.70341 0.695644 -0.145923
-3.96315 25.9277 -2.46312 -0.655315 0.702039 -0.274616
-3.90729 25.7846 -2.95276 -0.619347 0.714817 -0.322608
-3.74409 25.6645 -3.45903 -0.587617 0.714969 -0.378848
-3.51594 25.5739 -3.91107 -0.499762 0.749318 -0.434467
-3.23917 25.4933 -4.32419 -0.458937 0.732385 -0.502979
-2.78764 25.4212 -4.81031 -0.384727 0.73721 -0.552589
-2.31035 25.3872 -5.1221 -0.317065 0.734145 -0.600146
-1.83107 25.3843 -5.3414 -0.240141 0.730548 -0.639244
-1.34403 25.3869 -5.48632 -0.170999 0.718595 -0.674078
-0.798522 25.3839 -5.59848 -0.110656 0.707838 -0.697654
-0.295728 25.3805 -5.64993 -0.0426965 0.727888 -0.684366
0.209308 25.3892 -5.63402 0.0359463 0.735526 -0.676542
0.71335 25.3982 -5.5722 0.0907675 0.724643 -0.68312
1.29313 25.3882 -5.44115 0.219951 0.734964 -0.641443
1.79767 25.3727 -5.2771 0.242365 0.737892 -0.629901
2.35845 25.3631 -5.03371 0.300278 0.732311 -0.611181
2.79996 25.3575 -4.78625 0.363412 0.735525 -0.571163
3.3061 25.3817 -4.39188 0.41531 0.73285 -0.538932
3.73927 25.4226 -3.97383 0.463061 0.730881 -0.500835
4.09224 25.4527 -3.57293 0.52248 0.733333 -0.43483
4.42261 25.4586 -3.16477 0.552781 0.732273 -0.397502
4.71802 25.4455 -2.7615 0.579618 0.745624 -0.32702
4.98281 25.4137 -2.31655 0.591458 0.758631 -0.272488
5.21999 25.3842 -1.82832 0.630356 0.751169 -0.194962
5.35787 25.3804 -1.32285 0.644578 0.758488 -0.095634
5.44265 25.3666 -0.799003 0.654929 0.752251 -0.072016
5.42336 25.3958 -0.295243 0.670995 0.741129 0.0222085
5.19276 25.5486 0.338409 0.646601 0.757594 0.0892054
4.9402 25.7088 0.761016 0.669921 0.715226 0.199141
4.57082 25.8847 1.2721 0.639861 0.728999 0.242986
4.23698 26.0514 1.62254 0.609879 0.720695 0.329615
3.80798 26.2215 2.02829 0.595583 0.693892 0.402026
3.3164 26.3565 2.40252 0.521593 0.687964 0.504559
2.88448 26.4674 2.66423 0.470661 0.661423 0.58395
2.40946 26.5542 2.89929 0.406869 0.659463 0.632113
1.92646 26.6179 3.12345 0.339578 0.640351 0.688278
1.43624 26.6308 3.32526 0.270781 0.656369 0.704172
0.875376 26.6154 3.52598 0.19062 0.643633 0.741215
0.206139 26.5115 3.74968 0.128061 0.658528 0.74158
-0.310557 26.3839 3.87899 0.0188116 0.679185 0.733726
-0.941559 26.2518 3.95106 -0.120576 0.681037 0.720179
-1.53781 26.1778 3.86621 -0.23279 0.738557 0.632333
-2.13511 26.2049 3.54401 -0.372551 0.713604 0.593275
-2.52757 26.2514 3.19463 -0.450141 0.714802 0.535192
-2.88418 26.2845 2.78799 -0.512408 0.726569 0.457446
-3.17942 26.3115 2.37749 -0.608361 0.696233 0.380775
-3.4139 26.347 1.9151 -0.623825 0.717714 0.305479
-3.5969 26.3789 1.32837 -0.669925 0.708152 0.222982
-3.72179 26.3911 0.805322 -0.716503 0.685995 0.126628
-3.81545 26.3841 0.276428 -0.724754 0.681221 0.102418
-3.88188 26.3631 -0.278451 -0.728485 0.683776 0.0418866
-3.89518 26.3541 -0.480119 -0.721476 0.691977 -0.0252581
-3.89676 26.3472 -0.629416 -0.720543 0.692987 -0.0242151
