-2.05687 28.6586 -1.71177 -0.506532 0.799879 -0.313363
-1.96542 28.4756 -2.21085 -0.445483 0.773384 -0.442533
-1.67386 28.3171 -2.68512 -0.350398 0.77415 -0.525025
-1.23809 28.2286 -3.05298 -0.261012 0.781337 -0.566909
-0.783042 28.1677 -3.30701 -0.186341 0.756256 -0.627179
-0.328077 28.1057 -3.50821 -0.16859 0.753396 -0.635588
0.173352 28.0147 -3.64612 0.00155212 0.713372 -0.700742
0.738204 27.8371 -3.76519 0.105362 0.747494 -0.655859
1.27545 27.6483 -3.85168 0.19411 0.728751 -0.656691
1.84971 27.5157 -3.77677 0.308289 0.679445 -0.665231
2.15433 27.7348 -3.35701 0.37512 0.743433 -0.553112
2.4435 27.9155 -2.91965 0.389452 0.713572 -0.582359
2.73094 28.0333 -2.47068 0.545879 0.691862 -0.470718
2.94649 28.1123 -1.98289 0.551674 0.767526 -0.326335
3.11356 28.1455 -1.44152 0.683553 0.708654 -0.174828
3.08661 28.2787 -0.920361 0.631321 0.766373 -0.118773
2.8117 28.5576 -0.438648 0.577776 0.810557 -0.0957728
2.48973 28.7775 -0.0506144 0.524655 0.846915 0.0864439
2.11747 29.0104 0.291844 0.545378 0.837031 0.0300256
1.62498 29.1957 0.660738 0.481108 0.849711 0.212787
1.17766 29.2796 0.900711 0.298646 0.916214 0.267134
0.693059 29.3334 1.1182 0.12555 0.93312 0.336933
0.119906 29.3197 1.30931 0.0722642 0.937989 0.339049
-0.459381 29.2553 1.38033 -0.127064 0.901674 0.413326
-0.960961 29.2408 1.19097 -0.319797 0.852149 0.414213
-1.32705 29.252 0.827906 -0.357428 0.876708 0.317169
-1.63109 29.2204 0.384491 -0.537928 0.820869 0.175741
-1.85679 29.1302 -0.15486 -0.660959 0.748602 0.0522252
-1.96502 29.0256 -0.638368 -0.650173 0.758942 -0.0347728
-2.02593 28.8818 -1.16624 -0.552094 0.810048 -0.197414
-2.05571 28.6707 -1.67481 -0.548853 0.789619 -0.272584
-5.71295 25.3791 -0.295484 -0.650789 0.759071 0.00200562
-5.82013 25.2758 -0.81673 -0.648841 0.759997 -0.0353002
-5.91644 25.1513 -1.34454 -0.638664 0.762506 -0.103405
-5.99177 25.0125 -1.85829 -0.637145 0.761103 -0.121329
-5.93078 24.963 -2.38396 -0.618354 0.768376 -0.164914
-5.801 24.9443 -2.9112 -0.603843 0.770622 -0.203753
-5.64048 24.9133 -3.46676 -0.595142 0.767834 -0.236835
-5.37852 24.9091 -4.0084 -0.567867 0.758903 -0.318736
-5.04351 24.8741 -4.61568 -0.522064 0.763538 -0.378929
-4.72897 24.8364 -5.0462 -0.486567 0.7628 -0.425896
-4.35532 24.7985 -5.48948 -0.450351 0.764104 -0.461684
-3.8953 24.7767 -5.90916 -0.396806 0.757756 -0.517306
-3.42935 24.7639 -6.23523 -0.344501 0.753208 -0.560354
-2.89518 24.752 -6.54483 -0.264503 0.759967 -0.593707
-2.33662 24.7173 -6.81258 -0.205849 0.778051 -0.593517
-1.82283 24.6866 -7.01279 -0.173735 0.76485 -0.620339
-1.27875 24.6382 -7.19974 -0.116352 0.761132 -0.638076
-0.769311 24.5512 -7.38092 -0.0776969 0.768728 -0.634839
-0.198731 24.4438 -7.5538 -0.0341893 0.768584 -0.638834
0.386693 24.3188 -7.69921 0.0401947 0.783997 -0.619411
0.893548 24.2125 -7.7848 0.0773638 0.789697 -0.60848
1.3912 24.1017 -7.86077 0.0983332 0.793228 -0.600933
1.89188 23.9731 -7.93827 0.133084 0.813085 -0.566728
2.43389 23.7974 -8.04998 0.156701 0.81708 -0.55482
2.91306 23.6201 -8.16693 0.194564 0.828894 -0.524437
3.3717 23.4362 -8.29133 0.202429 0.837149 -0.507906
3.86448 23.2007 -8.47261 0.216492 0.837881 -0.501085
4.40456 22.924 -8.69195 0.238803 0.846756 -0.475359
4.8262 22.7317 -8.82444 0.248384 0.856396 -0.452646
4.89336 22.9541 -8.36066 0.284403 0.851007 -0.441431
4.93228 23.2051 -7.85666 0.288964 0.848149 -0.444008
5.03164 23.4695 -7.28399 0.329283 0.835809 -0.439313
5.15418 23.6705 -6.81655 0.367851 0.822229 -0.434248
5.276 23.8616 -6.35917 0.371906 0.814264 -0.445712
5.44504 24.1383 -5.68224 0.415267 0.80641 -0.420571
5.6211 24.2893 -5.22139 0.455683 0.782956 -0.423399
5.81101 24.4361 -4.71514 0.48435 0.785858 -0.38449
6.05863 24.5469 -4.15282 0.516311 0.778688 -0.356466
6.30988 24.6034 -3.64221 0.551443 0.759376 -0.345338
6.5346 24.6351 -3.12685 0.580638 0.765489 -0.277266
6.71089 24.665 -2.63058 0.609556 0.759869 -0.225472
6.90347 24.6738 -2.03415 0.624104 0.756163 -0.196598
7.03381 24.6486 -1.54639 0.635661 0.764742 -0.104583
7.12536 24.6319 -1.05179 0.647874 0.75837 -0.0648557
7.16821 24.6229 -0.537358 0.640426 0.767408 -0.0164932
7.1267 24.645 -0.00152078 0.640367 0.765873 0.0580487
7.00887 24.7008 0.481102 0.642216 0.759553 0.10294
6.77443 24.8067 1.05626 0.635353 0.756416 0.15419
6.48259 24.9223 1.55336 0.599894 0.767401 0.22591
6.16372 25.0484 1.95519 0.592015 0.763397 0.258345
5.75296 25.2237 2.34279 0.585092 0.748229 0.312749
5.3479 25.3668 2.69276 0.567648 0.73934 0.361929
4.90548 25.4925 3.05088 0.54108 0.720363 0.433852
4.49815 25.5834 3.36613 0.497914 0.711977 0.494466
4.05811 25.6605 3.65729 0.436221 0.717291 0.54324
3.53512 25.7205 3.97586 0.39029 0.71432 0.580878
2.95104 25.8072 4.24463 0.373763 0.703312 0.604693
2.29643 25.8913 4.48226 0.287065 0.717424 0.634741
1.81937 25.9024 4.67483 0.266052 0.693361 0.669676
1.16001 25.8786 4.9291 0.198222 0.718737 0.666016
0.644868 25.8463 5.09214 0.126424 0.716669 0.685823
0.0971858 25.8154 5.20749 0.0641963 0.717285 0.693816
-0.554593 25.7577 5.28676 -0.00805351 0.733384 0.679638
-1.05427 25.7209 5.28412 -0.0836862 0.735103 0.672393
-1.576 25.6741 5.20598 -0.173931 0.739295 0.650529
-2.18211 25.6654 4.99995 -0.286867 0.732382 0.617505
-2.73813 25.6817 4.67161 -0.363306 0.721354 0.589549
-3.1463 25.7039 4.37547 -0.406229 0.730435 0.549038
-3.58345 25.7157 4.00451 -0.456228 0.716132 0.528216
-3.9287 25.7228 3.64142 -0.520561 0.726961 0.447821
-4.25265 25.7325 3.21771 -0.54505 0.733133 0.406739
-4.54373 25.7318 2.77297 -0.584675 0.741668 0.32876
-4.88439 25.685 2.18702 -0.619427 0.737888 0.267983
-5.13316 25.6256 1.695 -0.643689 0.741209 0.190454
-5.33223 25.5574 1.23223 -0.664344 0.733081 0.145736
-5.48998 25.5136 0.643556 -0.659376 0.743586 0.110918
-5.62352 25.4465 0.0968183 -0.654563 0.754523 0.0417442
-5.69203 25.3951 -0.203421 -0.654254 0.756043 0.0186677
7.59697 20.4445 -12.5531 0.178246 0.920102 -0.348663
7.91985 20.2795 -12.8172 0.216605 0.916128 -0.337331
7.84191 20.4015 -12.5331 0.220341 0.921267 -0.320494
7.76053 20.4341 -12.4949 0.199719 0.922256 -0.330232
