-3.46716 28.2154 -1.64588 -0.681265 0.715673 -0.153138
-3.27868 28.4908 -1.17243 -0.687119 0.716602 -0.116894
-3.0227 28.734 -0.806421 -0.619202 0.78309 -0.0570997
-2.75631 28.9762 -0.415251 -0.604994 0.793877 -0.0587472
-2.439 29.2107 0.0529629 -0.542293 0.837177 0.0572864
-2.14616 29.3581 0.431127 -0.548286 0.828535 0.111525
-1.82341 29.4575 0.802114 -0.386389 0.897581 0.212253
-1.34191 29.5481 1.2652 -0.252687 0.924282 0.267181
-0.865929 29.5259 1.57094 -0.14538 0.891598 0.428855
-0.364271 29.4911 1.8067 -0.121244 0.87884 0.461455
0.113024 29.4061 1.95764 0.103216 0.900769 0.42173
0.659429 29.2908 2.07053 0.143715 0.88921 0.432517
1.20262 29.1425 2.10243 0.269052 0.85026 0.4516
1.81596 28.9343 2.04834 0.339171 0.832088 0.438828
2.3755 28.7589 1.92988 0.370691 0.827985 0.420267
2.88101 28.6237 1.63496 0.514388 0.739723 0.433839
3.20611 28.5766 1.24446 0.600671 0.724459 0.33642
3.50803 28.5292 0.710498 0.659808 0.710928 0.236597
3.72879 28.4559 0.0515116 0.690277 0.711213 0.133016
3.82858 28.4101 -0.441885 0.702273 0.709955 0.0526969
3.83957 28.3511 -0.963689 0.696347 0.710407 -0.102091
3.77725 28.3012 -1.4612 0.681343 0.70932 -0.180659
3.65054 28.2291 -2.01089 0.667117 0.690487 -0.279523
3.4236 28.1048 -2.65071 0.588631 0.695763 -0.411616
3.18101 27.9263 -3.21319 0.488408 0.749792 -0.446396
2.92583 27.7216 -3.6701 0.392301 0.728185 -0.561919
2.70521 27.4712 -4.13084 0.33725 0.718195 -0.608653
2.44904 27.249 -4.5237 0.307263 0.732314 -0.607706
1.90332 27.4411 -4.55831 0.272863 0.720039 -0.638036
1.45221 27.6789 -4.46942 0.219899 0.728485 -0.64881
0.979283 27.9107 -4.35965 0.157397 0.733504 -0.659421
0.399807 28.1329 -4.22757 0.0938737 0.717264 -0.689678
-0.0922969 28.2828 -4.1174 0.0238021 0.712115 -0.700586
-0.587301 28.3879 -3.92136 -0.151925 0.738235 -0.65589
-1.05678 28.462 -3.71326 -0.202404 0.7799 -0.588935
-1.54947 28.4809 -3.45838 -0.25995 0.788745 -0.557053
-2.16 28.483 -3.10004 -0.360184 0.819456 -0.444785
-2.58028 28.4516 -2.78422 -0.443348 0.796241 -0.404932
-3.03343 28.3528 -2.35268 -0.552842 0.762411 -0.333793
-3.33919 28.2432 -1.95645 -0.636556 0.739067 -0.2204
-3.45181 28.2098 -1.73276 -0.672045 0.714895 -0.191092
-6.48186 23.8879 -6.06104 -0.473266 0.789166 -0.391417
-6.93589 23.7934 -5.67919 -0.495299 0.788022 -0.36565
-7.33364 23.7015 -5.32577 -0.492713 0.807344 -0.324699
-7.75852 23.5809 -4.94553 -0.508974 0.81084 -0.288936
-8.28428 23.3937 -4.52848 -0.515232 0.817086 -0.258662
-8.66613 23.2441 -4.24176 -0.508926 0.828009 -0.235361
-9.0618 23.082 -3.97271 -0.504051 0.839276 -0.203834
-9.6188 22.8454 -3.63337 -0.482665 0.85321 -0.196906
-10.0745 22.643 -3.38764 -0.481406 0.859724 -0.170652
-10.4951 22.4503 -3.19166 -0.471603 0.866055 -0.165947
-10.9196 22.2518 -3.01505 -0.469584 0.871047 -0.143916
-11.4173 22.0058 -2.83672 -0.497707 0.85744 -0.130705
-11.87 21.7696 -2.69328 -0.484899 0.865155 -0.127978
-12.3452 21.5204 -2.56084 -0.494329 0.865047 -0.0856317
-12.8101 21.2735 -2.43643 -0.476227 0.874196 -0.0945398
-13.3285 21.0123 -2.32736 -0.465884 0.880442 -0.0871782
-13.8027 20.7776 -2.2101 -0.459379 0.884755 -0.0783928
-14.2286 20.5797 -1.85662 -0.464381 0.883469 -0.061392
-14.1863 20.6273 -1.36765 -0.462316 0.88558 -0.0448439
-13.74 20.8786 -0.952844 -0.481482 0.876356 -0.0132198
-13.3334 21.1012 -0.734484 -0.465357 0.884963 -0.016812
-12.9003 21.3329 -0.550448 -0.468291 0.883569 -0.00294132
-12.4767 21.5566 -0.377253 -0.467292 0.884038 0.0105228
-12.0097 21.8027 -0.226192 -0.464277 0.88564 0.00936571
-11.5515 22.0481 -0.0781079 -0.483193 0.875293 0.0196472
-11.0311 22.329 0.137332 -0.491946 0.869962 0.0336676
-10.5718 22.5821 0.32501 -0.506261 0.8606 0.0537012
-10.1228 22.8407 0.529091 -0.513315 0.855823 0.0633262
-9.69385 23.0857 0.743212 -0.527329 0.846953 0.0676475
-9.21009 23.3694 0.989608 -0.545078 0.833226 0.0928676
-8.73787 23.6404 1.29983 -0.555875 0.823852 0.110779
-8.36974 23.8487 1.59662 -0.572774 0.811507 0.115697
-7.91402 24.1027 1.98761 -0.568409 0.805331 0.166642
-7.55865 24.2819 2.34411 -0.575613 0.79232 0.201182
-7.21171 24.4422 2.70181 -0.568284 0.785891 0.243678
-6.86192 24.5825 3.04717 -0.5771 0.772497 0.264959
-6.4506 24.7305 3.43825 -0.561185 0.768502 0.306696
-5.99946 24.8761 3.84643 -0.542932 0.756823 0.363928
-5.60302 24.9521 4.23689 -0.516092 0.762929 0.389343
-5.12916 25.011 4.67572 -0.491084 0.734291 0.468672
-4.69855 25.0351 5.04867 -0.451858 0.742797 0.494041
-4.24813 25.0573 5.40299 -0.410157 0.740571 0.532284
-3.79634 25.0596 5.72879 -0.353379 0.752138 0.556249
-3.31751 25.0485 6.03149 -0.320721 0.755117 0.571784
-2.84685 25.0288 6.29832 -0.278958 0.748044 0.602173
-2.38867 24.9902 6.53948 -0.235198 0.744232 0.62514
-1.91356 24.9609 6.73726 -0.173309 0.754066 0.633521
-1.35714 24.9253 6.91786 -0.111409 0.756759 0.64413
-0.764257 24.8834 7.05752 -0.081019 0.766266 0.637395
-0.107876 24.8224 7.15792 0.0139784 0.757769 0.652373
0.517477 24.7317 7.21677 0.0822529 0.753504 0.652278
1.04615 24.6438 7.24171 0.124417 0.775501 0.618966
1.53834 24.5464 7.25603 0.133732 0.780287 0.610815
2.03864 24.4362 7.26931 0.165433 0.790175 0.590132
2.57493 24.3546 7.19966 0.203093 0.789376 0.579344
3.263 24.2795 7.03259 0.231266 0.798917 0.555201
3.76744 24.2074 6.90171 0.268262 0.801874 0.533651
4.27582 24.1022 6.78212 0.298227 0.803053 0.515913
4.84035 23.9948 6.60432 0.320129 0.803778 0.501456
5.31305 23.9059 6.41832 0.349764 0.808768 0.472636
5.81579 23.9207 5.99856 0.385094 0.799564 0.460869
6.18714 23.9926 5.54073 0.412197 0.791354 0.451451
6.57318 24.0341 5.07648 0.45159 0.790935 0.412903
6.95245 24.0351 4.65233 0.453687 0.79734 0.398016
7.28668 24.0179 4.28029 0.48196 0.79352 0.371539
7.64769 23.9748 3.87128 0.506952 0.787784 0.349841
7.93377 23.9826 3.36904 0.52927 0.802415 0.275688
8.1754 24.0053 2.75573 0.571251 0.783109 0.245789
8.36985 24.0051 2.22406 0.607166 0.770756 0.190618
8.52436 23.984 1.74217 0.613031 0.775218 0.151917
8.69195 23.9463 1.15342 0.62344 0.775908 0.0963799
8.83674 23.8904 0.53766 0.632139 0.772218 0.0636883
8.94344 23.8395 -0.0425358 0.641124 0.766581 0.0299288
8.98434 23.8151 -0.664789 0.62983 0.776717 -0.00499311
8.95277 23.823 -1.26405 0.625474 0.777839 -0.0612283
8.89173 23.8179 -1.8579 0.626929 0.77524 -0.0772191
8.79746 23.8028 -2.4165 0.615177 0.769778 -0.17029
8.65186 23.7674 -3.06643 0.587474 0.786621 -0.190006
8.52092 23.7319 -3.57303 0.574412 0.787181 -0.224493
8.36791 23.6826 -4.09358 0.549448 0.793963 -0.260249
8.22796 23.6106 -4.59937 0.544211 0.794735 -0.268758
8.1021 23.5177 -5.09685 0.527864 0.794607 -0.299932
7.97019 23.3837 -5.66926 0.491828 0.813476 -0.310423
7.88926 23.2404 -6.16845 0.473628 0.824703 -0.309099
7.82026 23.0297 -6.82447 0.466432 0.825306 -0.318275
7.79828 22.8353 -7.35859 0.434414 0.840691 -0.3233
7.81494 22.6164 -7.90792 0.412389 0.846612 -0.336428
7.86567 22.4187 -8.37148 0.406417 0.85821 -0.31351
7.95545 22.2016 -8.87322 0.378687 0.872814 -0.307865
8.11204 21.9459 -9.42215 0.377689 0.879496 -0.289549
8.31847 21.7025 -9.9057 0.35144 0.892092 -0.28375
8.5928 21.4441 -10.4114 0.336353 0.903416 -0.265564
8.83417 21.2078 -10.9008 0.347379 0.901493 -0.258144
8.61094 21.1663 -11.3252 0.306475 0.912072 -0.270937
8.11165 21.2058 -11.6716 0.269574 0.912346 -0.308148
7.683 21.2177 -11.9449 0.220332 0.913907 -0.340275
7.17919 21.2122 -12.2561 0.186986 0.91153 -0.365754
6.69803 21.1917 -12.52 0.15066 0.910774 -0.384386
6.19178 21.1605 -12.7837 0.136401 0.906305 -0.400007
5.68177 21.1011 -13.059 0.103071 0.903035 -0.417018
5.16522 21.0444 -13.2785 0.0773694 0.88831 -0.452321
4.73311 21.1883 -13.0704 0.0790612 0.882369 -0.463826
4.31692 21.4739 -12.6049 0.0876647 0.871831 -0.481898
3.97806 21.6937 -12.2654 0.0793149 0.8674 -0.49125
3.60557 21.9026 -11.9633 0.07528 0.85943 -0.505624
3.09823 22.1607 -11.5937 0.0695257 0.857966 -0.508981
2.63174 22.4002 -11.2523 0.0447212 0.851706 -0.522107
2.20221 22.5987 -10.9748 0.0575037 0.8437 -0.533726
1.77342 22.7859 -10.7139 0.0383675 0.840801 -0.539982
1.3528 22.9636 -10.4689 0.0152102 0.825642 -0.563989
0.8947 23.1464 -10.2153 0.00826332 0.822843 -0.568129
0.442646 23.3066 -9.98813 -0.00527192 0.818491 -0.57443
0.00366743 23.4398 -9.78053 -0.049054 0.805319 -0.590787
-0.459731 23.5539 -9.59019 -0.0712936 0.801325 -0.593441
-0.928658 23.6463 -9.40142 -0.098912 0.788834 -0.606464
-1.42086 23.7286 -9.20203 -0.140466 0.78174 -0.607545
-1.98029 23.8317 -8.92887 -0.161332 0.783708 -0.599811
-2.42156 23.9073 -8.69975 -0.192493 0.771971 -0.605811
-2.88291 23.9644 -8.47042 -0.239687 0.758984 -0.605387
-3.36962 23.9964 -8.22443 -0.276326 0.760876 -0.587121
-3.83661 23.9965 -7.99462 -0.299074 0.764848 -0.57058
-4.40619 24.0104 -7.65792 -0.329555 0.768364 -0.548561
-4.89295 24.0168 -7.33208 -0.374851 0.767074 -0.520656
-5.3128 24.006 -7.02299 -0.388132 0.785245 -0.482435
-5.77308 23.9843 -6.66438 -0.43375 0.778126 -0.453347
-6.18619 23.935 -6.31833 -0.466767 0.784696 -0.407639
-6.30908 23.9164 -6.20953 -0.468908 0.790309 -0.394381
-6.43563 23.8956 -6.10073 -0.468905 0.79031 -0.394382
