-4.6738 27.8308 -1.56922 -0.71256 0.678185 -0.178293
-4.4296 28.1534 -1.19086 -0.721186 0.678962 -0.137484
-4.18962 28.4616 -0.848903 -0.710763 0.697987 -0.0873512
-3.91951 28.7588 -0.476011 -0.709706 0.704393 -0.0121793
-3.60235 29.0446 -0.0771885 -0.637859 0.761078 0.117883
-3.20171 29.2971 0.335173 -0.611005 0.779597 0.137485
-2.83496 29.4714 0.707458 -0.549196 0.808751 0.210432
-2.46454 29.6118 1.0724 -0.522785 0.837919 0.156805
-2.09388 29.7225 1.41883 -0.443076 0.829387 0.340295
-1.64065 29.7761 1.76529 -0.348492 0.876031 0.333351
-1.2141 29.7957 2.08064 -0.227041 0.871717 0.434237
-0.720863 29.778 2.34816 -0.120859 0.886415 0.446835
-0.195986 29.7207 2.56908 -0.0773656 0.866504 0.493139
0.392071 29.5713 2.7594 0.117586 0.82164 0.557746
0.941122 29.3619 2.89622 0.199727 0.829052 0.522285
1.47365 29.1104 3.00281 0.318683 0.746384 0.584253
1.9138 28.8675 3.09262 0.312668 0.752015 0.580269
2.36498 28.6196 3.18229 0.356814 0.757101 0.543436
2.80377 28.3272 3.24991 0.411691 0.721455 0.556788
3.35286 28.0172 3.26331 0.461135 0.700846 0.538957
3.60394 28.125 2.81723 0.526855 0.718504 0.45404
3.78954 28.2763 2.28494 0.538957 0.757914 0.367233
3.94965 28.3851 1.80222 0.544667 0.761675 0.350982
4.10946 28.4731 1.32329 0.604974 0.767651 0.210745
4.24177 28.5162 0.791179 0.600042 0.76835 0.222345
4.40236 28.5314 0.175601 0.649996 0.752705 0.1046
4.48942 28.5075 -0.318711 0.680249 0.730955 0.0544608
4.50655 28.4128 -0.998426 0.657445 0.729233 -0.1897
4.47801 28.3231 -1.4957 0.647127 0.735787 -0.198091
4.40192 28.2355 -2.03412 0.610831 0.749741 -0.254507
4.29124 28.152 -2.52333 0.615458 0.737078 -0.279155
4.14978 28.0417 -3.03705 0.518337 0.766408 -0.379403
3.96774 27.85 -3.60256 0.512243 0.730522 -0.451602
3.78881 27.6432 -4.04235 0.440949 0.717237 -0.5395
3.56642 27.3919 -4.54947 0.400388 0.724192 -0.561459
3.38411 27.1202 -5.03404 0.392209 0.733504 -0.555107
3.20629 26.869 -5.48008 0.359301 0.73699 -0.572493
2.75467 26.9184 -5.68493 0.332916 0.735787 -0.589732
2.25413 27.2241 -5.57528 0.300926 0.741891 -0.5992
1.77544 27.4843 -5.4727 0.237464 0.748477 -0.619187
1.30953 27.7037 -5.37119 0.214878 0.737604 -0.639313
0.80104 27.93 -5.2424 0.118167 0.753661 -0.645735
0.316527 28.1267 -5.10268 0.0472259 0.726161 -0.683189
-0.275881 28.2718 -4.88801 -0.0937418 0.755485 -0.647805
-0.753193 28.3538 -4.68865 -0.16842 0.764324 -0.62245
-1.28419 28.4298 -4.41611 -0.254025 0.767996 -0.587702
-1.72932 28.463 -4.16569 -0.27294 0.777169 -0.567021
-2.31219 28.4735 -3.85133 -0.333247 0.768015 -0.545435
-2.74472 28.4767 -3.55403 -0.362685 0.753508 -0.548348
-3.15609 28.4554 -3.23496 -0.466575 0.726846 -0.503987
-3.589 28.3426 -2.88838 -0.60044 0.695818 -0.391993
-3.99504 28.1813 -2.49469 -0.643904 0.716979 -0.267074
-4.33269 28.001 -2.11862 -0.671434 0.707871 -0.219305
-4.6136 27.8294 -1.78731 -0.692833 0.692969 -0.198975
-7.83374 22.9291 -7.72935 -0.424833 0.797235 -0.428828
-7.32073 22.9835 -8.1158 -0.409275 0.795432 -0.446968
-6.78725 23.0369 -8.4968 -0.393031 0.792883 -0.465686
-6.26782 23.072 -8.85329 -0.363676 0.780693 -0.508192
-5.79038 23.092 -9.15507 -0.348187 0.786002 -0.510849
-5.28583 23.1046 -9.45717 -0.330255 0.776519 -0.536441
-4.79173 23.0821 -9.77247 -0.301332 0.776408 -0.553329
-4.27397 23.0488 -10.0726 -0.268756 0.778238 -0.567552
-3.81504 23.0068 -10.3345 -0.234028 0.787982 -0.569487
-3.29306 22.9625 -10.5965 -0.215474 0.785312 -0.580393
-2.77457 22.8991 -10.853 -0.187701 0.780358 -0.596498
-2.28319 22.8182 -11.1037 -0.162519 0.788036 -0.593791
-1.75908 22.7192 -11.375 -0.151224 0.794837 -0.587679
-1.2907 22.6087 -11.6393 -0.140708 0.804468 -0.57709
-0.828754 22.4904 -11.9096 -0.122875 0.804978 -0.580401
-0.361037 22.3707 -12.1664 -0.1049 0.811862 -0.574348
0.0910993 22.2393 -12.4366 -0.0961336 0.816062 -0.569819
0.513276 22.0957 -12.7091 -0.074486 0.821677 -0.564827
0.961837 21.9185 -13.02 -0.06387 0.833853 -0.548261
1.40402 21.7519 -13.3223 -0.0552847 0.835136 -0.547225
1.93529 21.5493 -13.6706 -0.03212 0.838406 -0.544097
2.47543 21.6115 -13.5965 -0.0157178 0.845937 -0.533051
2.9748 21.7163 -13.4329 0.0153396 0.849461 -0.527429
3.57471 21.8289 -13.2171 0.0400443 0.853861 -0.518959
4.05197 21.9075 -13.0316 0.058576 0.862525 -0.502612
4.53324 21.9774 -12.8316 0.0864843 0.867675 -0.489551
5.04962 22.044 -12.5905 0.12012 0.883019 -0.453705
5.63706 22.0994 -12.3149 0.141333 0.888848 -0.43586
6.24613 22.1499 -11.9906 0.166696 0.893974 -0.415825
6.81601 22.1818 -11.656 0.208552 0.89481 -0.394742
7.38663 22.1843 -11.303 0.236526 0.909716 -0.340684
7.90736 22.1531 -10.9333 0.305159 0.89883 -0.314616
8.41435 22.0963 -10.5698 0.330808 0.900888 -0.280838
8.85197 22.0359 -10.2175 0.362833 0.89492 -0.25963
9.292 21.9498 -9.87609 0.394349 0.886825 -0.240894
9.71279 21.8463 -9.52815 0.422561 0.877262 -0.227714
10.1134 21.7265 -9.20664 0.447773 0.870374 -0.204812
10.4412 21.6458 -8.79762 0.467397 0.864994 -0.182552
10.4166 21.8123 -8.17333 0.490235 0.845058 -0.213379
10.3672 21.9652 -7.69158 0.498462 0.839119 -0.217749
10.3203 22.1911 -6.96178 0.511129 0.827665 -0.231692
10.3287 22.3294 -6.4699 0.522718 0.81886 -0.236856
10.36 22.5095 -5.7733 0.535129 0.811209 -0.235743
10.4129 22.6303 -5.22587 0.554112 0.801537 -0.224716
10.4753 22.7372 -4.68483 0.555162 0.802768 -0.217622
10.5637 22.8191 -4.08566 0.574285 0.798052 -0.182418
10.6745 22.8673 -3.46773 0.589345 0.792698 -0.155891
10.7804 22.892 -2.87518 0.601081 0.789641 -0.122763
10.8528 22.917 -2.25848 0.603899 0.792545 -0.0847323
10.9088 22.9303 -1.65383 0.618193 0.7827 -0.0722301
10.9292 22.9499 -1.1358 0.619488 0.783823 -0.0421633
10.9432 22.9622 -0.595306 0.609764 0.79217 -0.0162143
10.9136 22.9818 -0.0589344 0.607946 0.793734 0.0193878
10.8369 23.0226 0.457238 0.611342 0.789535 0.0536908
10.7349 23.0572 1.00966 0.612506 0.786915 0.0748427
10.6011 23.088 1.65995 0.606036 0.790036 0.0924033
10.431 23.1198 2.32422 0.605679 0.78534 0.127809
10.3193 23.1063 2.87961 0.59262 0.790894 0.151917
10.1781 23.062 3.51879 0.571881 0.795714 0.19941
10.0502 22.9894 4.12093 0.552498 0.79923 0.235861
9.91388 22.8732 4.78219 0.509268 0.820538 0.25929
9.79393 22.7658 5.33166 0.501684 0.81983 0.276004
9.64805 22.6723 5.82555 0.484633 0.824748 0.29099
9.50135 22.5725 6.31597 0.45319 0.832553 0.318299
9.37341 22.4543 6.81197 0.427915 0.84081 0.330829
9.21155 22.3006 7.38236 0.413961 0.843073 0.343313
9.09287 22.1548 7.86889 0.394001 0.850327 0.348867
8.95253 21.9826 8.42793 0.372144 0.854562 0.36226
8.80369 21.7997 9.01034 0.349497 0.86481 0.360493
8.62434 21.6591 9.51054 0.326808 0.865686 0.379189
8.34424 21.5592 9.97601 0.323339 0.865708 0.382098
7.82516 21.5161 10.4692 0.293023 0.862831 0.411742
7.21338 21.5781 10.7521 0.273067 0.867333 0.416134
6.73187 21.6405 10.9314 0.259798 0.856943 0.445144
6.23741 21.681 11.1389 0.251413 0.860833 0.442393
5.63328 21.7039 11.3912 0.205857 0.867523 0.452799
5.11526 21.7119 11.5998 0.190315 0.866528 0.461421
4.62238 21.7089 11.7956 0.178747 0.859334 0.479161
3.99415 21.6797 12.0577 0.154269 0.859245 0.487748
3.37085 21.764 12.0777 0.124559 0.8616 0.492067
2.97462 22.0298 11.7157 0.104423 0.846983 0.521264
2.60658 22.2666 11.3934 0.0963329 0.850238 0.517492
2.17196 22.5415 11.0161 0.0814123 0.846318 0.52642
1.80952 22.7519 10.7332 0.0768834 0.834628 0.545404
1.40298 22.9603 10.4594 0.0493381 0.829733 0.555924
1.01065 23.1472 10.211 0.0301885 0.823677 0.566194
0.606116 23.3247 9.97514 -6.40663e-05 0.817222 0.5763
0.121545 23.5264 9.6921 0.000128145 0.814042 0.580806
-0.440016 23.7355 9.38144 -0.0439094 0.799448 0.599128
-0.925729 23.8639 9.16271 -0.0809442 0.791431 0.605649
-1.41444 23.9666 8.95873 -0.109709 0.786087 0.608302
-1.95278 24.0583 8.73161 -0.133005 0.775776 0.616832
-2.51989 24.1306 8.46677 -0.209934 0.772935 0.598598
-3.00118 24.1796 8.21921 -0.239246 0.759519 0.604721
-3.5514 24.2051 7.9395 -0.292755 0.762235 0.57717
-4.11849 24.2314 7.58832 -0.339564 0.758047 0.556831
-4.54388 24.2417 7.31034 -0.358796 0.752075 0.552855
-5.08666 24.2392 6.94517 -0.375872 0.75432 0.538255
-5.52807 24.2254 6.63826 -0.409744 0.765881 0.495516
-6.03426 24.1872 6.2727 -0.419156 0.767009 0.485805
-6.59266 24.1207 5.86874 -0.451005 0.770029 0.450875
-7.15828 24.0063 5.47185 -0.458881 0.789131 0.40829
-7.67698 23.8693 5.14769 -0.462055 0.80302 0.376384
-8.10526 23.7387 4.88914 -0.479333 0.796178 0.369219
-8.5491 23.6013 4.5626 -0.490941 0.801305 0.341236
-8.95131 23.4644 4.28854 -0.485934 0.822899 0.294459
-9.39985 23.301 3.96491 -0.491086 0.830401 0.263189
-9.79718 23.146 3.6932 -0.490883 0.839434 0.233137
-10.2262 22.9647 3.44325 -0.491847 0.840574 0.226986
-10.6755 22.7719 3.17898 -0.479976 0.852082 0.208758
-11.1598 22.5599 2.9234 -0.479601 0.853212 0.204913
-11.5957 22.366 2.69798 -0.479418 0.856222 0.192368
-12.0518 22.1521 2.4812 -0.478184 0.865208 0.150852
-12.5571 21.9121 2.25794 -0.476913 0.865833 0.151288
-13.0756 21.6602 2.05983 -0.478325 0.865323 0.149736
-13.5106 21.4566 1.80482 -0.480498 0.868443 0.12218
-13.6422 21.4649 1.19945 -0.492704 0.864634 0.09696
-13.6678 21.5006 0.607876 -0.495011 0.866815 0.0599706
-13.6653 21.5387 -0.0195089 -0.468919 0.882592 0.0338514
-13.631 21.5706 -0.598351 -0.472275 0.881443 0.00379144
-13.5794 21.5817 -1.29814 -0.471051 0.881227 -0.0393687
-13.5135 21.5838 -1.8327 -0.475501 0.877605 -0.0608977
-13.4429 21.5665 -2.44857 -0.467034 0.880274 -0.0830051
-13.3669 21.541 -2.96537 -0.463141 0.878618 -0.116325
-13.2675 21.5115 -3.46533 -0.464672 0.871218 -0.157623
-13.1225 21.4651 -4.08605 -0.450845 0.872923 -0.186398
-12.9711 21.4111 -4.6719 -0.450293 0.86651 -0.215398
-12.7526 21.3982 -5.11958 -0.434726 0.860478 -0.265688
-12.3004 21.5707 -5.31928 -0.436559 0.850385 -0.293703
-11.859 21.7348 -5.49767 -0.436896 0.85246 -0.287076
-11.2585 21.9574 -5.75326 -0.450133 0.838922 -0.305926
-10.8156 22.1181 -5.95663 -0.440779 0.840186 -0.315915
-10.3661 22.2732 -6.17907 -0.447046 0.83517 -0.320377
-9.8338 22.4478 -6.45444 -0.459832 0.820564 -0.339425
-9.37791 22.5821 -6.72666 -0.450772 0.816347 -0.361082
-8.92402 22.6995 -7.0166 -0.452093 0.813047 -0.366737
-8.45501 22.8062 -7.31954 -0.437451 0.804044 -0.40267
-8.02315 22.8956 -7.602 -0.432112 0.798175 -0.419697
-7.91878 22.9142 -7.67202 -0.426097 0.799621 -0.42314
-7.87465 22.922 -7.70164 -0.426097 0.799623 -0.423137
