-11.1586 53.2295 -0.647039 -0.518843 0.850854 -0.0820848
-11.12 53.2026 0.878196 -0.548866 0.831289 0.0877761
-10.9946 52.9619 2.41162 -0.536982 0.811108 0.231849
-10.8159 52.4986 3.86423 -0.480637 0.788268 0.384215
-10.496 51.8623 5.21325 -0.414271 0.74935 0.516409
-9.67058 51.6523 6.13259 -0.407634 0.720354 0.561181
-8.16855 52.2965 6.38955 -0.407506 0.713207 0.570328
-6.76903 52.7919 6.75314 -0.398481 0.701828 0.590455
-5.315 53.1236 7.25892 -0.356174 0.691708 0.628235
-3.88271 53.1706 7.9383 -0.303832 0.700278 0.645985
-2.52106 52.8387 8.86044 -0.245691 0.712 0.657793
-1.31694 52.2992 9.88448 -0.224157 0.736084 0.638696
-0.278237 51.71 10.8986 -0.172521 0.757204 0.629949
0.707246 51.1927 11.785 -0.151527 0.774713 0.613863
2.18932 51.7023 11.3645 -0.0392045 0.804821 0.592221
3.6376 52.0229 10.8742 0.0907508 0.809405 0.5796
5.00566 52.2171 10.1734 0.250988 0.851567 0.460259
6.27847 52.212 9.21376 0.385066 0.836119 0.390677
5.33697 53.0305 8.38021 0.375269 0.83132 0.409976
4.42977 53.9147 7.45577 0.336176 0.819385 0.464322
3.31835 54.4517 7.31364 0.269615 0.781884 0.562108
1.86134 54.4547 7.75676 0.0975875 0.769046 0.6317
0.24143 54.3283 7.92029 -0.063895 0.759257 0.647646
-1.34103 54.2505 7.70531 -0.172996 0.727808 0.663602
-2.92823 54.1917 7.26517 -0.2566 0.693811 0.672892
-4.44965 54.2623 6.48964 -0.337531 0.69711 0.632452
-5.7015 54.4636 5.49726 -0.401158 0.69687 0.594475
-6.72042 54.6903 4.40546 -0.467261 0.721144 0.51148
-7.56603 54.9509 3.11104 -0.512248 0.751789 0.414502
-8.14124 55.1331 1.65325 -0.560177 0.784497 0.264799
-8.35783 55.1495 0.0857578 -0.547638 0.831651 -0.0919171
-8.15687 54.9428 -1.54718 -0.526418 0.80131 -0.284228
-9.19445 54.0816 -2.09926 -0.497853 0.797811 -0.340016
-10.3729 53.1562 -2.58057 -0.484267 0.803436 -0.346134
-11.0397 52.9948 -1.96894 -0.502063 0.810054 -0.302315
-11.1585 53.2294 -0.648977 -0.520474 0.848884 -0.0922134
-15.2532 50.944 -0.246181 -0.425686 0.899015 -0.102785
-15.211 50.9456 1.37358 -0.418878 0.902214 0.102721
-15.075 50.6044 2.84608 -0.458161 0.830549 0.315586
-14.8061 50.0538 4.24293 -0.414292 0.783941 0.462349
-14.4921 49.3588 5.56895 -0.409095 0.747852 0.522838
-14.3085 48.4576 6.9042 -0.39997 0.721617 0.56506
-14.3399 47.4972 8.06704 -0.397698 0.704895 0.58732
-14.535 46.4724 9.13981 -0.401338 0.692746 0.599191
-14.9108 45.3916 10.1277 -0.40722 0.687221 0.601579
-13.8489 46.0132 10.1288 -0.402447 0.690916 0.600559
-12.4843 46.9803 9.91232 -0.394366 0.696025 0.60002
-11.2007 47.7604 9.83454 -0.385927 0.701462 0.599175
-9.83187 48.5252 9.81074 -0.37683 0.702991 0.60316
-8.39301 49.1257 9.99386 -0.365834 0.703338 0.609493
-6.96359 49.659 10.2164 -0.352103 0.703489 0.617351
-5.5811 49.7638 10.8523 -0.328924 0.704658 0.628702
-4.32487 49.4211 11.8771 -0.312268 0.713764 0.626921
-3.41925 48.8418 12.9655 -0.297501 0.714376 0.633367
-2.73691 48.0857 14.1353 -0.289355 0.719519 0.631321
-2.08717 47.3162 15.2998 -0.286629 0.715476 0.637133
-1.61762 46.3749 16.5575 -0.283613 0.713522 0.640661
-1.28176 45.4654 17.7263 -0.28407 0.716791 0.6368
-0.553527 46.3146 17.0885 -0.267517 0.721121 0.639077
0.392108 47.3211 16.3283 -0.238004 0.73123 0.639257
1.51317 48.1592 15.7268 -0.193947 0.75281 0.628959
2.80919 48.8133 15.277 -0.131446 0.78599 0.604098
4.18233 49.2631 14.8531 -0.0412878 0.811602 0.582751
5.60802 49.6004 14.3149 0.0373381 0.837946 0.544474
7.01635 49.823 13.6376 0.221125 0.848192 0.478643
8.37893 49.7058 12.8257 0.366836 0.860995 0.352306
9.65108 49.3806 11.9772 0.449492 0.848419 0.279538
10.8365 48.9003 10.9502 0.583676 0.790742 0.184524
11.8575 48.3077 9.98165 0.630526 0.765367 0.129034
12.8906 47.532 9.10937 0.672685 0.734139 0.0923799
12.617 47.9081 8.1406 0.677653 0.729677 0.0913853
11.659 48.8715 7.38769 0.669073 0.736717 0.0979037
10.7036 49.8297 6.61901 0.653337 0.749333 0.107845
9.71853 50.7852 5.95882 0.655532 0.746745 0.112473
8.73702 51.7502 5.27821 0.647333 0.751599 0.126724
7.75011 52.7731 4.41833 0.657105 0.738922 0.149025
7.0447 53.6102 3.395 0.671081 0.729349 0.132966
6.62012 54.2742 2.01014 0.700646 0.704971 0.109901
6.41313 54.6681 0.523175 0.725259 0.687032 0.0439969
6.49648 54.5627 -1.03212 0.714613 0.696518 -0.0647327
7.05104 53.8082 -2.51373 0.677487 0.722742 -0.135996
7.79051 52.8812 -3.72066 0.656883 0.735924 -0.164076
8.55806 52.0041 -4.72925 0.643473 0.748951 -0.157762
9.54485 51.0268 -5.46516 0.637339 0.754724 -0.155536
10.5302 50.0778 -6.19455 0.637273 0.761212 -0.120168
11.5787 49.0476 -6.95432 0.655345 0.744951 -0.124786
12.5053 48.1127 -7.68875 0.66363 0.739391 -0.113228
13.4273 47.181 -8.4312 0.667361 0.738021 -0.099595
12.7188 47.6644 -9.28228 0.635776 0.76053 -0.131841
11.6577 48.32 -10.2123 0.596989 0.772191 -0.217543
10.5098 48.7999 -11.2575 0.506492 0.813879 -0.284713
9.24147 49.1028 -12.3181 0.429065 0.830917 -0.354231
7.97268 49.2748 -13.1436 0.303114 0.838698 -0.450064
6.47965 49.1639 -13.907 0.137733 0.845128 -0.516504
4.97052 48.805 -14.5894 -0.0177518 0.827949 -0.560097
3.40448 48.3113 -15.0582 -0.126784 0.800503 -0.585765
2.07424 47.6932 -15.4865 -0.209601 0.757995 -0.617666
1.34737 47.8688 -15.0246 -0.226027 0.750328 -0.621223
1.37349 48.9134 -13.7316 -0.208107 0.768934 -0.604455
1.44146 49.8472 -12.5563 -0.177882 0.781034 -0.598568
1.64264 50.8292 -11.3162 -0.152754 0.78724 -0.597427
1.78036 51.7483 -10.1339 -0.122573 0.781977 -0.611137
1.6835 52.7644 -8.83924 -0.0392207 0.772583 -0.633701
1.32904 53.6837 -7.67011 -0.0559886 0.760366 -0.646949
0.582399 54.6373 -6.56818 -0.0918716 0.704206 -0.704026
-0.66332 55.358 -5.70316 -0.132908 0.663943 -0.735749
-2.1707 55.4313 -5.28184 -0.217894 0.658216 -0.720606
-3.59953 54.9646 -5.24112 -0.257937 0.666492 -0.699467
-4.9396 54.2199 -5.40555 -0.301934 0.686694 -0.661277
-6.20997 53.3304 -5.7131 -0.334108 0.703885 -0.626832
-7.4552 52.2887 -6.2114 -0.345939 0.707075 -0.616742
-8.58792 51.3197 -6.688 -0.351599 0.708957 -0.611358
-9.77151 50.3898 -7.0629 -0.37378 0.706113 -0.601409
-11.0291 49.3506 -7.49941 -0.378236 0.707094 -0.597454
-12.1891 48.3553 -7.93325 -0.381007 0.702866 -0.600677
-13.3832 47.3529 -8.33151 -0.391815 0.69617 -0.601522
-14.3914 46.7614 -8.35915 -0.393938 0.695427 -0.600994
-14.2727 47.8622 -7.13949 -0.400497 0.707292 -0.582479
-14.4262 48.8496 -5.78836 -0.405394 0.727092 -0.554046
-14.7351 49.603 -4.49313 -0.43276 0.754414 -0.493313
-15.0565 50.2327 -3.07941 -0.456763 0.801076 -0.38684
-15.1788 50.7656 -1.49527 -0.423904 0.8775 -0.219946
-15.2532 50.9439 -0.246715 -0.431247 0.896922 -0.0974285
-4.5091 57.6991 -0.326112 -0.549923 0.828974 -0.101737
-4.296 57.7795 1.2692 -0.525021 0.825235 0.203506
-3.5997 57.6762 2.63484 -0.402269 0.81095 0.424899
-2.44035 57.5225 3.71429 -0.255575 0.802228 0.539547
-0.896126 57.4418 4.28961 -0.0661504 0.803144 0.592101
0.694579 57.3716 4.33421 0.110687 0.810494 0.573271
2.15141 57.2635 3.7614 0.356024 0.800254 0.48253
3.30774 57.1249 2.83469 0.548947 0.760539 0.346753
4.09621 56.959 1.35926 0.639567 0.752341 0.157912
4.32073 56.8462 -0.185277 0.666187 0.744127 -0.0495181
3.94444 56.879 -1.80489 0.636677 0.745167 -0.197643
3.0406 56.9039 -3.10317 0.473475 0.765 -0.435944
1.73581 56.9436 -3.95058 0.233488 0.771126 -0.589512
0.212693 56.8906 -4.29965 -0.018667 0.757052 -0.653088
-1.28098 56.8948 -4.12707 -0.173856 0.706572 -0.685952
-2.61439 57.0805 -3.41894 -0.298039 0.742305 -0.600025
-3.6687 57.349 -2.38007 -0.390091 0.785474 -0.480478
-4.39194 57.6226 -0.900545 -0.528575 0.813334 -0.241091
-4.50688 57.6968 -0.35811 -0.512395 0.840708 -0.159584
6.22677 51.8812 -8.96254 0.333243 0.838561 -0.430649
6.58767 51.7467 -8.93215 0.345588 0.838469 -0.421353
6.43982 51.854 -8.84076 0.349172 0.835664 -0.423963
6.27801 51.8886 -8.90577 0.349172 0.835664 -0.423963
