-9.16463 54.5209 -3.31003 -0.478749 0.750472 -0.455622
-8.92566 53.8238 -4.6303 -0.419875 0.746128 -0.516719
-8.58682 52.9858 -5.9584 -0.374764 0.716859 -0.587903
-7.90021 52.4408 -7.02147 -0.347395 0.70831 -0.614501
-6.377 52.7601 -7.44998 -0.313147 0.700997 -0.640727
-4.93028 52.8143 -8.03239 -0.262106 0.700252 -0.664039
-3.51091 52.6932 -8.69229 -0.235506 0.713993 -0.659352
-2.17904 52.4334 -9.43269 -0.214997 0.727329 -0.651743
-0.967392 52.0582 -10.267 -0.206406 0.750238 -0.628091
0.387135 52.5235 -10.1115 -0.174794 0.760906 -0.624817
1.72206 53.1371 -9.63155 -0.0843917 0.774137 -0.627366
3.11565 53.5348 -9.11041 0.0782405 0.814446 -0.574476
3.90467 53.7211 -8.66977 0.140733 0.830351 -0.539177
2.60416 53.6377 -9.01641 0.0430435 0.803054 -0.593855
0.999967 53.4538 -9.12753 -0.12568 0.761917 -0.635363
-0.512625 53.2955 -8.95728 -0.176343 0.73739 -0.652035
-2.05639 53.1795 -8.64643 -0.197347 0.72246 -0.66265
-3.47378 53.2359 -8.129 -0.232339 0.70296 -0.67221
-4.81722 53.3896 -7.47277 -0.267602 0.692493 -0.669912
-6.13764 53.6308 -6.62054 -0.320481 0.696948 -0.641497
-7.29253 53.9471 -5.62364 -0.377032 0.705183 -0.600289
-8.36432 54.2424 -4.49192 -0.416016 0.733104 -0.537885
-9.11857 54.4415 -3.48913 -0.478754 0.750469 -0.455621
-4.47895 58.0424 -1.9566 -0.491703 0.782456 -0.382088
-3.57617 57.8216 -3.18997 -0.386493 0.744448 -0.544429
-2.23495 57.6024 -4.17533 -0.247295 0.705716 -0.663488
-0.82031 57.4992 -4.68347 -0.145007 0.717143 -0.681395
0.7936 57.4869 -4.71404 0.0976803 0.756608 -0.64596
2.29377 57.4933 -4.22629 0.293117 0.764971 -0.573499
3.55317 57.4646 -3.27079 0.478803 0.772768 -0.415166
4.42215 57.4447 -1.88203 0.597725 0.762784 -0.246749
4.76122 57.4786 -0.325187 0.659967 0.748593 -0.042811
4.64152 57.5211 1.18585 0.649563 0.751088 0.118043
4.05048 57.6019 2.58018 0.55735 0.777044 0.291899
2.98265 57.75 3.78257 0.433037 0.789373 0.434696
1.6209 57.8609 4.58192 0.266497 0.802276 0.534166
0.0180957 57.9539 4.89351 0.0752368 0.793013 0.604541
-1.46825 58.0146 4.67557 -0.154827 0.762494 0.627809
-2.99849 58.1159 3.93524 -0.313292 0.767605 0.558654
-4.11001 58.2394 2.85387 -0.465476 0.771539 0.432489
-4.81961 58.2814 1.53154 -0.551569 0.813694 0.183346
-5.0059 58.2343 -0.0100509 -0.558046 0.829486 -0.0231909
-4.69097 58.1185 -1.47988 -0.458095 0.839703 -0.29163
-4.5797 58.0806 -1.74883 -0.459304 0.804102 -0.375362
-9.02703 54.6001 3.84546 -0.482764 0.765946 0.424577
-8.71372 53.9054 5.25728 -0.438032 0.74139 0.508399
-8.43777 53.0484 6.60499 -0.407505 0.715162 0.567842
-8.26056 52.0844 7.89978 -0.389981 0.703578 0.594048
-8.23179 51.0787 9.1048 -0.374863 0.704948 0.602096
-8.30651 50.0734 10.2234 -0.360386 0.703358 0.612704
-7.61827 49.5933 11.1753 -0.353 0.702825 0.617588
-6.14359 49.5664 12.0133 -0.330863 0.706353 0.625776
-4.8126 49.7402 12.5014 -0.314293 0.709419 0.630823
-3.79656 50.7074 11.8987 -0.297343 0.715603 0.63206
-2.65118 51.6777 11.2868 -0.256903 0.727638 0.636038
-1.43851 52.5104 10.7838 -0.218115 0.736496 0.64027
-0.165637 53.2001 10.3389 -0.147282 0.766019 0.625718
1.38181 53.7933 9.8457 -0.0352378 0.783037 0.620657
2.66415 54.1275 9.36636 0.100751 0.801777 0.58907
1.3715 54.1356 9.41363 -0.0433552 0.782228 0.621482
-0.289851 53.9948 9.38687 -0.11885 0.749267 0.651517
-1.79165 53.9159 9.10617 -0.216343 0.716311 0.663385
-3.30435 53.9006 8.57078 -0.270409 0.704288 0.656397
-4.69311 53.9352 7.9118 -0.311857 0.696346 0.646407
-5.95461 54.0468 7.08218 -0.382289 0.695836 0.608003
-7.11199 54.1892 6.1314 -0.413392 0.710745 0.569165
-8.23039 54.4222 4.93208 -0.440357 0.748983 0.495001
-8.94866 54.5919 3.94934 -0.470845 0.766717 0.436091
-14.2602 51.5449 4.01823 -0.440124 0.791128 0.424703
-13.9322 50.8365 5.41766 -0.409288 0.752595 0.515784
-13.7274 49.9742 6.74815 -0.399831 0.728555 0.556143
-13.7298 49.0377 7.93292 -0.398439 0.712167 0.577981
-13.8587 47.9927 9.10657 -0.398411 0.701218 0.591236
-14.3062 46.7678 10.2368 -0.40341 0.691049 0.59976
-14.8792 45.5821 11.2078 -0.404817 0.6859 0.604702
-15.5673 44.3929 12.0839 -0.411491 0.679003 0.607972
-16.4122 43.2362 12.7874 -0.421918 0.66807 0.612915
-15.9745 43.1401 13.1921 -0.420735 0.664819 0.617248
-14.4215 43.8089 13.4978 -0.40506 0.677173 0.614298
-12.9708 44.4396 13.7323 -0.39035 0.684341 0.615877
-11.5595 44.902 14.0968 -0.378292 0.688701 0.618536
-10.0898 45.2233 14.6267 -0.371624 0.688522 0.622762
-8.69236 45.3487 15.3078 -0.360036 0.690642 0.627202
-7.43112 45.0932 16.299 -0.348061 0.696027 0.628012
-6.38426 44.669 17.3461 -0.338606 0.705346 0.622762
-5.53085 44.0911 18.4491 -0.333107 0.704539 0.626629
-4.90256 43.3643 19.5992 -0.323809 0.709272 0.626163
-4.33756 42.5451 20.8174 -0.32857 0.70733 0.62588
-3.78853 41.7071 22.0545 -0.336305 0.704652 0.624792
-3.34913 40.8349 23.2752 -0.337119 0.705287 0.623634
-2.9151 40.9918 23.3314 -0.33399 0.707216 0.623134
-2.94817 42.0505 22.1033 -0.325346 0.713579 0.620445
-2.92677 43.0441 20.974 -0.314278 0.716939 0.622269
-2.80284 44.1066 19.8062 -0.300747 0.721037 0.624225
-2.45667 45.1582 18.7605 -0.294943 0.718077 0.630377
-1.89172 46.2299 17.8061 -0.286333 0.717564 0.634914
-1.18806 47.2826 16.9332 -0.277232 0.717851 0.638617
-0.292101 48.3102 16.1291 -0.247006 0.73138 0.635654
0.836893 49.2384 15.4628 -0.211033 0.744918 0.632799
2.17371 50.0238 14.907 -0.163232 0.767363 0.620088
3.6493 50.5925 14.4595 -0.0830627 0.799046 0.595505
5.05568 50.9133 13.9329 0.0964976 0.838728 0.535933
6.44762 51.0964 13.2111 0.200667 0.865268 0.459225
7.8662 51.0042 12.4324 0.355676 0.856021 0.374877
9.22098 50.7167 11.5607 0.449861 0.845793 0.285102
10.4227 50.2824 10.5765 0.535888 0.815816 0.217414
11.4661 49.7274 9.56875 0.62961 0.765467 0.132852
12.4915 48.9906 8.72256 0.661801 0.742434 0.103818
13.5586 48.0971 8.06928 0.68081 0.727712 0.0831773
14.6081 47.1303 7.61069 0.700332 0.710881 0.0646698
15.7297 46.0326 7.28117 0.711453 0.699868 0.0634017
15.1759 46.6896 6.18937 0.706754 0.704958 0.0594437
14.4796 47.4835 4.96271 0.702163 0.709898 0.0548831
13.9603 48.0944 3.64055 0.702948 0.709771 0.0455821
13.5889 48.547 2.16278 0.705166 0.708144 0.0356891
13.3598 48.8371 0.68732 0.71 0.703971 0.0178441
13.4329 48.7763 -0.941976 0.708264 0.705947 -0.00122704
13.842 48.3549 -2.34318 0.705284 0.708809 -0.0123418
14.3992 47.7504 -3.68483 0.707679 0.70555 -0.0372836
15.1051 46.9745 -4.9014 0.703705 0.709116 -0.0442015
15.755 46.2545 -6.06108 0.704553 0.707978 -0.0486392
16.3233 45.5965 -7.20987 0.704831 0.706678 -0.0617726
15.2298 46.6618 -7.38464 0.698308 0.712643 -0.0671248
14.1056 47.6898 -7.77447 0.677201 0.73 -0.0921876
13.0439 48.5758 -8.36694 0.649423 0.751695 -0.114399
11.9729 49.3288 -9.15963 0.610163 0.77472 -0.165739
10.9454 49.8689 -10.1178 0.572017 0.790717 -0.218065
9.76054 50.2694 -11.1967 0.457337 0.828746 -0.322403
8.55378 50.4644 -12.0795 0.372712 0.84184 -0.390373
7.19062 50.5621 -12.8648 0.246191 0.860968 -0.445111
5.81136 50.4384 -13.5967 0.127306 0.855454 -0.501988
4.4567 50.1065 -14.1734 -0.0551606 0.818013 -0.572547
3.08711 49.6314 -14.5944 -0.14012 0.786644 -0.601296
1.78361 49.0177 -15.0105 -0.195502 0.760758 -0.618801
0.598702 48.2508 -15.5184 -0.234062 0.747359 -0.621827
-0.431917 47.3351 -16.1923 -0.259225 0.736834 -0.6244
-1.33562 46.2533 -17.0435 -0.282489 0.719918 -0.63397
-2.01681 46.5508 -16.3999 -0.288979 0.718604 -0.632533
-2.69431 47.3078 -15.2288 -0.29023 0.721004 -0.629221
-3.52299 47.9479 -14.1105 -0.288305 0.72375 -0.62695
-4.70675 48.3758 -13.076 -0.287453 0.720267 -0.631337
-5.98178 48.5761 -12.2577 -0.300971 0.713227 -0.633026
-7.47264 48.5469 -11.5689 -0.31527 0.705236 -0.635011
-8.89836 48.1526 -11.2812 -0.32842 0.701012 -0.633026
-10.3064 47.4861 -11.2686 -0.343275 0.70033 -0.62586
-11.7672 46.6967 -11.3208 -0.359999 0.693834 -0.623695
-13.1689 45.7802 -11.5166 -0.370954 0.694288 -0.616729
-14.4741 44.9844 -11.6158 -0.381238 0.694755 -0.609896
-14.6886 45.4061 -11.0028 -0.381088 0.694292 -0.610516
-14.2322 46.4906 -10.0529 -0.389376 0.694228 -0.605338
-13.8452 47.6289 -8.98922 -0.389241 0.700392 -0.598282
-13.6574 48.6635 -7.89364 -0.391499 0.707509 -0.588353
-13.7232 49.6245 -6.6694 -0.406437 0.713742 -0.570422
-13.9625 50.4598 -5.38239 -0.41748 0.743713 -0.522113
-14.271 51.167 -4.06102 -0.424941 0.768997 -0.477565
-14.5462 51.8182 -2.54462 -0.450226 0.831362 -0.325781
-14.6168 52.1615 -1.00314 -0.439896 0.886729 -0.141194
-14.6211 52.2999 0.59275 -0.469533 0.882804 -0.0139965
-14.5164 52.1439 2.16014 -0.440101 0.866385 0.235091
-14.3299 51.6669 3.71557 -0.4462 0.804036 0.391667
-14.2885 51.5909 3.90204 -0.437272 0.794693 0.421019
2.79446 54.2202 9.21797 0.103507 0.805382 0.583605
2.85907 54.1526 9.29885 0.0969809 0.803819 0.586895
5.9378 54.0891 7.56724 0.459749 0.812269 0.358957
5.95426 54.0836 7.55867 0.45975 0.812266 0.358963
6.22997 54.0739 7.21988 0.465923 0.815534 0.343248
7.15647 53.8483 6.13797 0.562426 0.785967 0.256642
7.89504 53.6355 4.71474 0.642946 0.748636 0.161322
8.42087 53.4175 3.27854 0.6787 0.725707 0.112769
8.79856 53.245 1.81792 0.696351 0.714047 0.0719262
9.06551 53.0818 0.397954 0.701195 0.712386 0.0288374
9.08168 53.0334 1.05916 0.701125 0.711998 0.0384817
9.20253 52.7744 2.58007 0.686419 0.722825 0.0793611
9.43241 52.3757 4.01061 0.670707 0.734321 0.104525
8.77578 52.7705 5.20691 0.650601 0.746629 0.138795
7.74397 53.411 6.12734 0.598267 0.773624 0.208764
6.63514 53.8847 7.06349 0.519299 0.800321 0.29969
6.37535 53.9922 7.21697 0.483892 0.805825 0.340671
9.00367 53.1547 -0.118154 0.703498 0.710669 0.00628854
9.12005 53.0036 -1.37364 0.707923 0.705117 -0.0406831
9.3915 52.5862 -2.95867 0.68718 0.721546 -0.0845827
9.55188 52.2143 -4.47473 0.646829 0.751784 -0.128191
8.57719 52.8165 -5.45033 0.608404 0.769369 -0.194442
7.53031 53.285 -6.44625 0.536283 0.796668 -0.278694
6.35737 53.5869 -7.37271 0.417199 0.827591 -0.37555
6.61767 53.7213 -6.77693 0.458112 0.816357 -0.351701
7.52727 53.5966 -5.56886 0.560219 0.774588 -0.293544
8.22167 53.4639 -4.10421 0.647963 0.741187 -0.173518
8.67554 53.3201 -2.52768 0.686853 0.720437 -0.0959114
8.95592 53.1836 -1.11464 0.709167 0.704261 -0.031737
9.03706 53.1228 -0.257291 0.703666 0.710482 -0.0020199
5.90945 53.7637 -7.46153 0.401153 0.824006 -0.400114
4.91166 53.7339 -8.22288 0.252233 0.84362 -0.474009
5.87222 53.673 -7.68564 0.376666 0.825716 -0.418767
6.05329 53.6463 -7.55915 0.401154 0.824005 -0.400114
