-9.10903 54.8148 -3.68815 -0.456207 0.767654 -0.450091
-8.82754 54.0732 -5.05974 -0.397937 0.737045 -0.54627
-8.49072 53.2743 -6.30921 -0.380671 0.716937 -0.58403
-8.32262 52.3234 -7.53596 -0.358434 0.703341 -0.613867
-8.20691 51.3245 -8.72229 -0.335067 0.702178 -0.628213
-8.20398 50.3197 -9.85048 -0.320801 0.701597 -0.636278
-6.91207 50.2629 -10.542 -0.300364 0.70579 -0.641593
-5.39411 50.1997 -11.3041 -0.28549 0.717347 -0.635538
-4.01216 50.2011 -11.9019 -0.270516 0.728463 -0.629415
-2.8224 51.1617 -11.2732 -0.246347 0.735801 -0.6308
-1.55869 52.0356 -10.718 -0.217286 0.741845 -0.634391
-0.265054 52.7652 -10.2635 -0.181186 0.75295 -0.632626
1.08497 53.3614 -9.87611 -0.129602 0.771039 -0.62346
2.47531 53.8641 -9.39917 0.016666 0.804546 -0.593392
3.7695 54.1722 -8.81472 0.151994 0.823682 -0.546302
2.49874 54.1183 -9.06585 0.0337505 0.801449 -0.596829
0.966714 53.9441 -9.15353 -0.107184 0.75247 -0.649791
-0.616691 53.772 -9.00118 -0.167618 0.737659 -0.653983
-2.08432 53.7012 -8.66861 -0.200175 0.712154 -0.672879
-3.58441 53.7552 -8.13369 -0.231105 0.69836 -0.677403
-4.95604 53.915 -7.45655 -0.273672 0.693945 -0.665991
-6.38634 54.1486 -6.53078 -0.338444 0.69337 -0.636061
-7.50928 54.4343 -5.53826 -0.381375 0.71339 -0.587901
-8.552 54.7644 -4.29257 -0.436979 0.753238 -0.491557
-8.97788 54.85 -3.76102 -0.449912 0.767323 -0.456847
-4.49475 58.5268 -2.00786 -0.488054 0.79517 -0.358556
-3.56914 58.2809 -3.23537 -0.370338 0.753778 -0.542835
-2.3137 58.0617 -4.19793 -0.257065 0.735984 -0.625684
-0.815516 57.9919 -4.705 -0.135029 0.737506 -0.661704
0.793308 57.9906 -4.72816 0.0986418 0.767182 -0.6338
2.3154 57.9746 -4.20975 0.315332 0.782815 -0.535276
3.58265 57.9529 -3.23534 0.466346 0.775273 -0.425996
4.40413 57.9346 -1.9758 0.5916 0.773479 -0.227288
4.76613 57.9504 -0.384376 0.657938 0.751066 -0.0549257
4.63643 58.0025 1.20215 0.630675 0.769348 0.101749
4.0423 58.1019 2.5857 0.56898 0.771414 0.284925
3.02372 58.2371 3.79002 0.435575 0.800535 0.409136
1.75168 58.3305 4.57095 0.281056 0.80871 0.516716
0.167359 58.4287 4.89776 0.0787003 0.777505 0.623929
-1.44294 58.5067 4.69565 -0.148426 0.757668 0.635342
-2.81844 58.5984 4.0564 -0.301424 0.771785 0.559903
-3.99075 58.7141 3.01418 -0.428104 0.787874 0.442698
-4.70415 58.7736 1.67385 -0.538298 0.825081 0.171689
-4.9699 58.732 0.201229 -0.595261 0.802371 -0.0356625
-4.79195 58.6095 -1.30325 -0.531019 0.805716 -0.259209
-4.5624 58.5453 -1.86075 -0.501894 0.798937 -0.331365
-9.00292 55.1698 3.75943 -0.484153 0.770117 0.415348
-8.76217 54.4624 5.12491 -0.441128 0.735893 0.513681
-8.48872 53.6722 6.42941 -0.412935 0.71749 0.560951
-8.29983 52.7327 7.73733 -0.390545 0.714366 0.580652
-8.24262 51.729 8.96573 -0.378447 0.704952 0.59985
-8.31053 50.7026 10.1224 -0.36771 0.704497 0.60702
-8.4555 49.6764 11.2193 -0.362248 0.702328 0.612786
-8.71842 48.5806 12.3091 -0.357802 0.699566 0.618535
-8.87533 47.5891 13.3396 -0.360402 0.695762 0.62131
-7.51742 47.5532 14.1532 -0.340806 0.699612 0.628008
-6.39271 48.2128 14.0205 -0.327468 0.703295 0.630984
-5.56993 49.3384 13.1831 -0.323264 0.707943 0.627946
-4.62736 50.3974 12.4574 -0.303492 0.715576 0.629149
-3.63562 51.3674 11.8108 -0.280039 0.722016 0.63267
-2.55645 52.26 11.2548 -0.249841 0.726247 0.640402
-1.32206 53.0889 10.7577 -0.210715 0.739467 0.639366
-0.00419298 53.7961 10.2945 -0.131057 0.759143 0.63753
1.36929 54.3173 9.8352 -0.0464091 0.783044 0.620207
2.24859 54.7227 9.31167 0.0499641 0.806913 0.588554
0.688548 54.5817 9.45378 -0.0646975 0.765917 0.639573
-0.953133 54.4873 9.28824 -0.153985 0.732497 0.663126
-2.50454 54.4427 8.87533 -0.224944 0.710402 0.666877
-3.92957 54.4539 8.31489 -0.291445 0.698187 0.653767
-5.27518 54.5171 7.56997 -0.35689 0.691031 0.628488
-6.50712 54.626 6.66547 -0.405728 0.701376 0.585994
-7.58687 54.8208 5.62781 -0.439713 0.712776 0.546365
-8.61428 55.0743 4.34746 -0.477962 0.73624 0.478976
-8.99168 55.1636 3.78399 -0.485075 0.769574 0.41528
-14.3306 52.2772 3.56507 -0.439311 0.807896 0.392823
-14.0122 51.5954 5.00777 -0.418865 0.754599 0.505106
-13.7948 50.7963 6.3083 -0.401941 0.738182 0.541785
-13.7097 49.8306 7.62068 -0.399355 0.716174 0.572372
-13.8421 48.8309 8.76204 -0.398045 0.708199 0.583106
-14.1072 47.7753 9.84117 -0.397431 0.698427 0.595187
-14.5918 46.6546 10.8216 -0.398521 0.692657 0.601172
-15.2115 45.5436 11.6811 -0.401941 0.686253 0.606219
-16.0511 44.3132 12.4859 -0.414075 0.675163 0.610489
-16.9834 43.0817 13.1816 -0.426332 0.659946 0.618629
-17.9248 41.9282 13.7442 -0.437771 0.655012 0.615885
-18.8467 40.7471 14.3336 -0.448848 0.650011 0.613202
-18.0622 41.1012 14.5266 -0.442528 0.65494 0.612555
-16.7072 41.7589 14.7843 -0.431597 0.658656 0.616357
-15.2176 42.3489 15.171 -0.416058 0.664022 0.621265
-13.6431 42.8043 15.7074 -0.3975 0.669325 0.627692
-12.2817 43.0147 16.3355 -0.385305 0.678349 0.625596
-10.8925 43.2614 16.9159 -0.377314 0.68479 0.623456
-9.47598 43.2843 17.7368 -0.368975 0.690981 0.621614
-8.33472 42.9453 18.7827 -0.363358 0.690688 0.625237
-7.36448 42.4882 19.8376 -0.356435 0.688437 0.631667
-6.56279 41.8808 20.9482 -0.350597 0.692 0.631045
-5.93765 41.1453 22.1021 -0.350494 0.693642 0.629297
-5.27936 40.3902 23.3049 -0.353123 0.694454 0.626926
-4.74135 39.5762 24.5144 -0.355795 0.694581 0.625274
-4.24667 38.7552 25.7128 -0.36074 0.694467 0.622561
-3.8514 37.8302 26.9763 -0.369762 0.691835 0.620194
-3.5291 36.8738 28.2385 -0.378231 0.690285 0.616802
-3.20277 35.8793 29.5481 -0.385409 0.687657 0.615295
-3.09482 34.9952 30.6025 -0.391958 0.685531 0.613527
-2.84868 35.3603 30.3512 -0.39067 0.68667 0.613075
-2.83751 36.44 29.1493 -0.383915 0.688633 0.615137
-2.85961 37.4944 27.9483 -0.371908 0.694903 0.615463
-2.87767 38.5255 26.7709 -0.364935 0.697203 0.617033
-2.9073 39.523 25.6211 -0.354715 0.702678 0.616782
-2.90085 40.5413 24.4663 -0.348513 0.70362 0.61924
-2.95071 41.6485 23.1816 -0.333184 0.709528 0.620933
-2.98071 42.6318 22.0402 -0.320812 0.716018 0.619998
-2.9 43.664 20.8911 -0.311461 0.716384 0.624329
-2.72813 44.6946 19.7839 -0.294455 0.722204 0.625873
-2.35077 45.7638 18.7356 -0.288556 0.716734 0.634844
-1.82367 46.8876 17.7058 -0.276541 0.71637 0.640577
-1.11131 47.9275 16.8384 -0.262345 0.7258 0.635916
-0.188009 48.9006 16.0938 -0.237619 0.734458 0.635639
0.849022 49.7912 15.4145 -0.20712 0.747889 0.630685
2.08974 50.5181 14.9071 -0.165596 0.770137 0.616004
3.57428 51.0901 14.4569 -0.0775589 0.792285 0.605202
5.12188 51.4331 13.8971 0.0677141 0.836759 0.543056
6.57939 51.581 13.1575 0.219798 0.861323 0.4578
7.94684 51.5007 12.3632 0.348583 0.859763 0.373225
9.2964 51.2004 11.4984 0.45821 0.837676 0.295272
10.4871 50.7682 10.4723 0.554387 0.802943 0.218807
11.567 50.1628 9.52646 0.623529 0.770461 0.132668
12.6404 49.3939 8.61433 0.657306 0.746605 0.102617
13.7305 48.4746 8.00028 0.685758 0.723433 0.0798838
14.8144 47.4738 7.49864 0.703886 0.706886 0.069687
15.8887 46.4122 7.3152 0.708616 0.702881 0.0618173
16.944 45.3349 7.22173 0.71991 0.69156 0.0589431
17.9545 44.2731 7.2251 0.726186 0.684772 0.0611668
17.384 44.9804 5.9511 0.722807 0.688894 0.0545424
16.8422 45.6517 4.55801 0.718358 0.693813 0.0508471
16.4604 46.1334 3.13143 0.720312 0.692869 0.0329099
16.2912 46.3695 1.63975 0.717951 0.695632 0.0253364
16.1599 46.5484 0.104534 0.716617 0.69728 0.0161202
16.33 46.384 -1.39324 0.718714 0.695277 -0.00397528
16.6827 45.9958 -2.79989 0.716981 0.696851 -0.0183716
17.1793 45.4463 -4.14339 0.716165 0.697496 -0.0246215
17.794 44.7632 -5.33848 0.71719 0.696051 -0.0339219
18.4469 44.0275 -6.57064 0.723651 0.68892 -0.0414548
18.8169 43.5804 -7.58457 0.719943 0.692102 -0.0516077
17.738 44.7052 -7.34322 0.711096 0.701064 -0.0533938
16.6326 45.8268 -7.23229 0.708998 0.702833 -0.0578598
15.5668 46.8735 -7.36178 0.699454 0.711318 -0.0692201
14.4639 47.8989 -7.66883 0.68122 0.726538 -0.0898962
13.3865 48.815 -8.16629 0.662256 0.741559 -0.107271
12.2857 49.6197 -8.94457 0.625162 0.76543 -0.152335
11.2526 50.2227 -9.87452 0.583056 0.786663 -0.20299
10.1854 50.6875 -10.8504 0.530783 0.810621 -0.247312
8.88023 50.9494 -11.8256 0.37281 0.852159 -0.367204
7.46942 51.047 -12.7144 0.261387 0.856495 -0.444998
5.96452 50.9723 -13.4678 0.138368 0.846968 -0.513321
4.49739 50.6174 -14.1318 -0.0450574 0.819918 -0.570594
3.08601 50.127 -14.6066 -0.124448 0.798626 -0.588793
1.75876 49.5325 -14.9959 -0.201367 0.762556 -0.614784
0.545857 48.7229 -15.5532 -0.237689 0.748571 -0.618987
-0.466125 47.7634 -16.2935 -0.262308 0.73595 -0.62415
-1.34593 46.7287 -17.1103 -0.278081 0.722436 -0.633053
-2.04705 45.6264 -18.0383 -0.290627 0.713969 -0.637012
-2.54557 44.5027 -19.0606 -0.301545 0.708205 -0.63837
-3.22251 44.1044 -19.175 -0.310956 0.70397 -0.638539
-4.07429 44.8369 -17.9543 -0.310642 0.703429 -0.639288
-4.94806 45.4655 -16.8333 -0.31066 0.704614 -0.637973
-6.18332 45.831 -15.8307 -0.310271 0.70356 -0.639324
-7.47493 46.0372 -14.9637 -0.325629 0.699326 -0.63632
-8.96127 46.04 -14.1934 -0.331509 0.698851 -0.633797
-10.3926 45.6883 -13.8168 -0.344191 0.69736 -0.628667
-11.9203 45.1422 -13.5746 -0.355077 0.69404 -0.626279
-13.2969 44.4894 -13.5029 -0.366637 0.691285 -0.622657
-14.6919 43.683 -13.565 -0.376348 0.683508 -0.625442
-16.0327 42.9851 -13.4951 -0.391265 0.67603 -0.624416
-17.2914 42.3822 -13.3435 -0.39894 0.662926 -0.633521
-16.3835 43.4732 -12.7415 -0.395677 0.679065 -0.61831
-15.5402 44.6451 -11.9684 -0.3859 0.691574 -0.610579
-14.8208 45.7433 -11.1715 -0.379925 0.694755 -0.610714
-14.2745 46.8627 -10.2348 -0.383429 0.697997 -0.604799
-13.9388 47.9804 -9.15757 -0.392866 0.701378 -0.594747
-13.7506 49.042 -8.01987 -0.394986 0.707129 -0.586476
-13.7464 50.0603 -6.7671 -0.397342 0.717568 -0.572027
-13.9471 50.8928 -5.52284 -0.415839 0.741038 -0.527197
-14.3072 51.637 -4.11553 -0.421361 0.767187 -0.483599
-14.5509 52.2928 -2.71864 -0.473208 0.791768 -0.386076
-14.6341 52.7586 -1.14998 -0.463519 0.86833 -0.173013
-14.6394 52.8754 0.402576 -0.409178 0.912349 0.0138823
-14.5766 52.7436 1.93965 -0.464309 0.87541 0.134442
-14.3624 52.3418 3.39665 -0.448074 0.799364 0.400055
-14.3467 52.3136 3.47203 -0.439312 0.807896 0.392822
6.50246 54.4664 7.10512 0.482199 0.814378 0.322839
7.63677 53.9867 6.23645 0.592004 0.778129 0.209873
8.7126 53.3401 5.22221 0.651477 0.744984 0.143303
9.6898 52.6176 4.34205 0.67272 0.732579 0.10381
10.7094 51.7763 3.51141 0.678558 0.730959 0.0725178
11.723 50.8754 2.86143 0.69275 0.719388 0.0507838
12.0333 50.656 1.54998 0.696023 0.717206 0.0341628
11.9949 50.7461 -0.057913 0.699717 0.714378 0.00774462
12.0815 50.6508 -1.58768 0.704493 0.709401 -0.0209401
11.7507 50.9091 -2.86372 0.689991 0.722077 -0.0501759
10.6954 51.8354 -3.60713 0.669284 0.738302 -0.0824454
9.66388 52.6303 -4.47459 0.654581 0.744351 -0.131705
8.56704 53.3273 -5.51721 0.612116 0.762049 -0.211139
7.46266 53.8148 -6.52075 0.540065 0.787962 -0.295712
7.18755 54.1241 -6.19824 0.528956 0.78494 -0.322003
8.0141 54.0033 -4.69724 0.613415 0.755858 -0.228909
8.5929 53.8349 -3.13412 0.678655 0.72391 -0.123987
8.88509 53.7544 -1.65976 0.690297 0.719456 -0.0766391
8.95603 53.7477 -0.0795141 0.710218 0.703945 0.00428512
8.83126 53.777 1.57923 0.705974 0.70471 0.0706041
8.53924 53.8751 3.07417 0.684614 0.720973 0.107245
8.05732 54.0671 4.49894 0.654639 0.739015 0.158366
7.39257 54.2903 5.83795 0.603945 0.762345 0.231513
6.57088 54.447 7.05068 0.496956 0.810784 0.308874
6.73175 54.1658 -6.79482 0.475461 0.809667 -0.344059
5.79918 54.2214 -7.71733 0.381241 0.811181 -0.442683
6.18814 54.2289 -7.33114 0.426344 0.813455 -0.395501
6.62378 54.192 -6.88261 0.476129 0.809169 -0.344306
-2.81581 34.5636 31.2607 -0.395402 0.683342 0.613759
-2.81388 34.5256 31.3043 -0.396221 0.682242 0.614453
-2.81396 34.5305 31.2988 -0.395408 0.683341 0.613757
