43.7336 5.17939 -123.808 0.00794425 0.768412 -0.639756
48.6437 4.74391 -124.024 0.0436659 0.790168 -0.611331
53.7637 4.42518 -123.648 0.122822 0.819566 -0.559663
58.6891 4.20424 -122.406 0.181513 0.8399 -0.511489
63.1434 4.26089 -120.109 0.30037 0.840506 -0.450764
67.1981 4.26946 -117.143 0.335329 0.840123 -0.426279
70.5826 4.42325 -113.493 0.446575 0.813839 -0.371803
73.1409 4.83205 -109.44 0.466993 0.815258 -0.34245
68.9518 5.94345 -112.077 0.418016 0.821636 -0.387526
64.6205 6.63285 -114.624 0.336607 0.834164 -0.436882
60.1279 7.04215 -116.986 0.295445 0.837779 -0.459172
55.5591 6.96212 -119.186 0.193453 0.831394 -0.52091
50.972 6.50337 -121.237 0.107037 0.818774 -0.564012
46.3017 5.75225 -122.889 0.046272 0.788882 -0.6128
43.7533 5.18725 -123.799 0.022151 0.769254 -0.638279
41.3492 8.16871 -120.213 -0.0465678 0.756417 -0.65243
36.6982 6.64648 -121.644 -0.0515575 0.738629 -0.672138
32.3859 4.4184 -122.964 -0.224244 0.711039 -0.666437
29.1556 2.14779 -124.212 -0.301161 0.623277 -0.721682
33.8575 2.00274 -126.016 -0.218014 0.71202 -0.667456
38.7497 1.83195 -127.198 -0.115825 0.743237 -0.658925
43.7173 1.72302 -128.054 -0.077895 0.782714 -0.617488
48.8506 1.61712 -128.316 0.018815 0.817806 -0.575187
53.9001 1.50551 -128.111 0.0714034 0.829895 -0.553331
58.8477 1.41358 -127.034 0.163058 0.848458 -0.503519
63.5568 1.42221 -125.119 0.226505 0.852113 -0.471797
67.6739 1.45432 -122.27 0.312486 0.844508 -0.434924
71.6748 1.47407 -119.18 0.386121 0.841479 -0.377813
74.7807 1.49738 -115.244 0.442869 0.829937 -0.339221
77.3128 1.63246 -110.935 0.545044 0.80342 -0.239673
79.3373 1.73231 -106.156 0.584999 0.773534 -0.243766
81.1485 1.85418 -101.366 0.626305 0.748989 -0.216234
82.0897 2.24701 -97.1675 0.668168 0.707733 -0.229491
78.5519 4.37744 -100.08 0.621179 0.752175 -0.219931
74.821 6.29456 -102.783 0.530592 0.781175 -0.328996
70.8974 7.84906 -105.697 0.514695 0.792436 -0.326726
66.5853 8.87995 -108.418 0.403845 0.81833 -0.408957
62.2204 9.58703 -110.967 0.334134 0.825513 -0.454844
57.6608 9.98199 -113.38 0.297739 0.82432 -0.481498
53.0298 9.83783 -115.605 0.191897 0.82689 -0.52861
48.4565 9.36268 -117.609 0.0978436 0.812723 -0.574377
43.6174 8.78691 -119.429 0.0917692 0.781416 -0.617225
41.5749 8.24934 -120.136 -0.0445698 0.758421 -0.650231
41.534 8.23475 -120.15 -0.0466388 0.756573 -0.652244
