42.6752 3.6443 121.182 0.122562 0.691134 0.712258
47.6835 3.60622 120.343 0.133777 0.695196 0.706262
52.5715 3.52998 119.172 0.236213 0.705655 0.668012
57.2963 3.44399 117.347 0.284418 0.725843 0.626305
61.8638 3.49743 115.045 0.358114 0.717216 0.597793
66.1675 3.5124 112.42 0.384102 0.710873 0.589174
70.1064 3.52483 109.187 0.471283 0.697299 0.540062
73.7641 3.5202 105.681 0.511768 0.70026 0.497725
72.1452 4.30701 106.27 0.522436 0.682485 0.51115
67.9568 5.16873 108.982 0.460689 0.693121 0.554391
63.6649 5.57356 111.537 0.367629 0.696329 0.616421
59.2464 5.72838 113.92 0.319959 0.690381 0.648845
54.6731 5.55037 116.24 0.272258 0.694204 0.6663
50.1633 5.03777 118.363 0.187733 0.70546 0.683434
45.4545 4.25413 120.127 0.128409 0.691063 0.711297
42.7646 3.63429 121.177 0.122561 0.691133 0.71226
41.4447 5.93478 119.184 0.103909 0.686781 0.719398
36.7226 4.98998 120.681 0.0896066 0.650317 0.75436
32.1839 2.91878 121.968 -0.101652 0.610531 0.785442
30.6727 1.35276 122.985 -0.107452 0.609786 0.785248
35.6958 1.34963 123.63 -0.0637517 0.617759 0.783535
40.7747 1.27558 123.761 0.0524692 0.6823 0.729186
45.8417 1.2415 123.036 0.132491 0.697741 0.703987
50.7781 1.22566 122.1 0.134131 0.695648 0.70575
55.5445 1.20582 120.498 0.240028 0.715129 0.656488
60.2088 1.16972 118.682 0.284161 0.729205 0.622505
64.5491 1.20147 116.194 0.355174 0.719146 0.597227
68.8085 1.20676 113.364 0.446241 0.715639 0.537306
72.7098 1.22712 109.976 0.468244 0.709142 0.527129
76.1821 1.24369 106.384 0.553117 0.691911 0.464026
79.3862 1.29022 102.48 0.604386 0.671479 0.428758
82.2001 1.31575 98.2647 0.673105 0.630038 0.387274
84.6236 1.3302 93.8097 0.681871 0.634117 0.36462
81.5568 3.20461 96.2927 0.664129 0.631882 0.399572
77.7267 4.7386 99.3749 0.607103 0.673063 0.422389
73.7296 6.02752 102.358 0.521176 0.682353 0.512611
69.6631 7.00975 105.202 0.517781 0.680004 0.519068
65.4627 7.65148 107.855 0.435161 0.701255 0.564691
61.1221 8.00139 110.36 0.356146 0.695305 0.624269
56.7027 8.04655 112.708 0.307264 0.693084 0.652092
52.1923 7.73286 114.863 0.233168 0.706404 0.668301
47.5139 7.11539 116.912 0.157867 0.70234 0.694115
42.8898 6.24183 118.673 0.118653 0.684289 0.719481
41.655 5.98484 119.106 0.10479 0.687171 0.718899
41.6036 5.97317 119.124 0.10479 0.687171 0.718899
