39.3695 5.25347 123.672 0.0321771 0.678088 0.734258
43.9787 6.27453 122.201 0.141138 0.692351 0.707619
48.6828 7.0524 120.335 0.173714 0.690903 0.701767
53.2656 7.70484 118.323 0.242101 0.6905 0.681611
57.8206 8.08504 116.159 0.291782 0.687059 0.665344
62.2779 7.99465 113.865 0.372783 0.692093 0.618094
66.6864 7.74019 111.372 0.428734 0.693678 0.57879
70.9745 7.12066 108.763 0.458905 0.686384 0.564166
75.1124 6.31132 105.879 0.54157 0.682403 0.490889
78.2503 5.10476 103.947 0.558403 0.679556 0.475805
74.9161 5.01997 107.9 0.508484 0.701156 0.499824
71.1431 4.93865 111.341 0.450509 0.696226 0.558845
67.2598 4.69908 114.513 0.384311 0.690879 0.612351
62.8325 4.82188 117.163 0.349703 0.714798 0.605616
58.403 4.73654 119.47 0.257334 0.725604 0.638184
53.5936 4.7622 121.205 0.214774 0.721222 0.658567
48.7248 4.88992 122.455 0.181047 0.693329 0.697508
43.7423 5.05113 123.456 0.133355 0.69706 0.704503
39.418 5.25013 123.673 0.0326397 0.674269 0.737764
39.2986 1.80651 126.654 -0.0288665 0.645643 0.763093
34.1939 1.90038 126.396 -0.100209 0.610446 0.785686
29.1225 1.89958 125.731 -0.107087 0.620037 0.77723
24.1299 1.89455 124.891 -0.135652 0.60774 0.782465
24.9388 3.22589 124.023 -0.129118 0.583609 0.801702
29.4533 5.4144 123.059 -0.0787387 0.597751 0.797784
33.9488 7.51787 121.996 -0.0794862 0.614417 0.784754
38.6184 8.79532 120.52 0.116248 0.664219 0.738444
43.4782 9.72928 118.944 0.146131 0.689142 0.709738
48.213 10.5839 117.072 0.184142 0.676443 0.713103
52.7956 11.118 115.055 0.242539 0.687523 0.684461
57.3245 11.4688 112.88 0.339534 0.682655 0.64705
61.7666 11.3031 110.544 0.370132 0.685655 0.626796
66.0648 10.9405 108.008 0.441745 0.692966 0.569789
70.2708 10.3541 105.365 0.484134 0.686828 0.542109
74.2907 9.41631 102.539 0.519253 0.686906 0.508466
78.2302 8.15721 99.5735 0.60025 0.667763 0.440217
81.9597 6.75256 96.4944 0.651992 0.631958 0.418957
85.4454 4.85973 93.3857 0.67953 0.634176 0.368861
88.8465 3.02667 90.1594 0.717396 0.60464 0.346055
89.4411 1.87988 90.9611 0.709412 0.610999 0.351305
87.1769 1.80308 95.5356 0.672013 0.647093 0.360095
84.6726 1.79351 99.9845 0.637113 0.659884 0.398298
81.9824 1.74291 104.236 0.589735 0.6815 0.433112
78.8115 1.7364 108.186 0.561624 0.68431 0.46508
75.4685 1.71187 111.896 0.470119 0.696324 0.542329
71.6884 1.61856 115.162 0.447579 0.741067 0.500492
67.7124 1.57861 118.174 0.345793 0.751689 0.561597
63.3288 1.60531 120.77 0.340502 0.738059 0.582518
58.698 1.60659 122.901 0.2377 0.731214 0.639394
53.8639 1.62627 124.627 0.207239 0.72004 0.662265
48.8718 1.62044 125.709 0.166866 0.718611 0.675096
43.96 1.73442 126.687 0.121551 0.694855 0.708801
39.4801 1.80571 126.662 -0.0288555 0.64564 0.763096
78.6266 5.2581 103.287 0.559866 0.677514 0.476995
78.8863 5.21433 103.045 0.559806 0.677451 0.477155
78.7492 5.1772 103.258 0.559868 0.677517 0.476988
