40.0699 6.38512 -126.319 -0.0897925 0.752123 -0.652877
45.0671 6.08145 -127.122 -0.010266 0.766939 -0.641459
50.2388 5.68974 -127.263 0.0518326 0.801619 -0.595583
55.2494 5.43844 -126.928 0.100611 0.835494 -0.540211
60.242 5.15425 -125.718 0.214202 0.843071 -0.493142
64.7235 5.12855 -123.411 0.264338 0.844908 -0.464944
68.7945 5.19779 -120.491 0.311323 0.840507 -0.443425
72.3023 5.38202 -116.823 0.437874 0.832584 -0.339219
75.0154 5.66475 -112.558 0.504294 0.7944 -0.33855
76.4955 6.2175 -108.763 0.53786 0.790347 -0.293281
72.3642 7.69149 -111.469 0.442243 0.817375 -0.369214
68.1908 8.58526 -114.278 0.384187 0.828107 -0.408214
64.1677 8.66597 -117.298 0.322099 0.83342 -0.449069
59.7179 8.60547 -120.146 0.255104 0.827653 -0.499913
55.0232 8.60236 -122.057 0.192132 0.830617 -0.522648
50.0706 8.47194 -123.483 0.0999189 0.81685 -0.56813
45.1558 7.95439 -124.746 0.0609495 0.795463 -0.602929
40.4412 6.54235 -126.192 -0.0968774 0.745812 -0.659049
40.2092 6.41813 -126.3 -0.092909 0.750904 -0.653834
37.6258 10.2374 -121.852 -0.0563408 0.740814 -0.669343
42.2559 11.6641 -120.411 0.0535144 0.772396 -0.632882
47.1052 12.0771 -118.877 0.133677 0.809516 -0.571676
51.9408 12.1695 -117.513 0.188251 0.83045 -0.524323
56.7685 12.1856 -115.705 0.231357 0.835265 -0.498804
61.055 12.202 -112.963 0.317726 0.83373 -0.451602
65.107 12.1358 -109.932 0.404842 0.826366 -0.391426
69.2946 11.3898 -107.227 0.426259 0.815023 -0.39248
73.2807 10.0064 -104.539 0.531852 0.784209 -0.319595
77.184 8.35073 -101.674 0.598624 0.742351 -0.30094
80.7973 6.29101 -98.742 0.623806 0.739104 -0.25413
84.2801 4.02402 -95.9834 0.718384 0.68545 -0.118672
85.7443 2.40138 -96.4903 0.718161 0.685495 -0.119753
84.4732 2.20691 -101.355 0.650173 0.729905 -0.210983
83.1832 2.06149 -106.194 0.605675 0.774378 -0.183021
81.4049 1.99939 -110.904 0.54943 0.797815 -0.24822
79.3588 1.92667 -115.476 0.493053 0.819605 -0.291795
76.7391 1.85508 -119.729 0.464294 0.823112 -0.326983
73.6071 1.75492 -123.608 0.325431 0.84273 -0.428831
69.5614 1.76138 -126.566 0.323015 0.846155 -0.423891
65.1441 1.75305 -129.283 0.22333 0.846473 -0.48333
60.5754 1.7551 -131.328 0.176267 0.844864 -0.505108
55.5723 1.86156 -132.212 0.071488 0.82096 -0.566494
50.4478 1.97732 -132.539 0.0174572 0.812742 -0.582362
45.4218 2.07021 -132.192 -0.0685331 0.780989 -0.620774
40.4716 2.08787 -131.358 -0.124535 0.766028 -0.630629
35.5574 2.31301 -130.013 -0.22563 0.716765 -0.659001
30.8211 2.39598 -128.175 -0.234047 0.639962 -0.731895
26.179 2.65174 -126.063 -0.408836 0.589527 -0.696643
27.1778 4.99492 -124.65 -0.364076 0.588706 -0.721716
31.383 7.49303 -123.597 -0.159201 0.708982 -0.68702
35.902 9.61322 -122.326 -0.0784456 0.703532 -0.706321
37.5082 10.1986 -121.886 -0.0507974 0.741543 -0.668979
37.589 10.2249 -121.863 -0.0535672 0.741183 -0.669157
