20.9664 6.01239 128.042 -0.157155 0.568261 0.8077
25.4283 7.97062 127.334 -0.126647 0.591062 0.796622
30.5188 8.09908 127.828 -0.0656358 0.609572 0.790009
35.5274 8.11358 128.109 -0.014713 0.617595 0.786355
40.7414 8.4211 127.816 0.0297668 0.63708 0.770216
45.7057 8.44207 127.179 0.0960887 0.678064 0.72869
50.6505 8.53378 126.106 0.197889 0.684132 0.701984
55.5477 8.58696 124.648 0.217861 0.698956 0.681174
60.3439 8.55521 122.782 0.271229 0.710649 0.649163
64.9171 8.54893 120.58 0.351831 0.701401 0.61988
69.1316 8.55148 117.858 0.402212 0.688347 0.603641
73.2499 8.5157 114.774 0.475368 0.680542 0.557573
77.0691 8.49861 111.447 0.497358 0.690554 0.525135
80.5395 8.37644 107.733 0.581742 0.672033 0.458201
83.7755 8.29273 103.804 0.624638 0.645611 0.439333
86.5953 8.23803 99.5657 0.648533 0.642913 0.407514
89.1399 8.20579 95.2162 0.701154 0.618877 0.354082
92.1496 7.03443 91.3609 0.714366 0.605304 0.351102
93.0401 5.79404 91.6574 0.718481 0.598516 0.354349
90.8494 5.69726 96.241 0.688812 0.636186 0.34757
88.5316 5.59505 100.668 0.656704 0.643206 0.393694
85.8288 5.53987 104.985 0.632384 0.673838 0.382143
82.9177 5.36022 109.175 0.562342 0.691187 0.453896
79.7045 5.38201 113.02 0.544729 0.68709 0.480809
76.1338 5.22216 116.613 0.457225 0.715415 0.528317
72.2371 5.21768 119.854 0.402964 0.719997 0.564866
68.0969 5.08101 122.656 0.386218 0.711914 0.586521
63.7177 5.14757 125.071 0.29269 0.709857 0.640653
59.0689 5.12827 127.056 0.259323 0.712509 0.651983
54.2354 5.20885 128.573 0.154428 0.7217 0.67476
49.182 5.21128 129.674 0.146973 0.692742 0.706038
44.096 5.42106 130.227 0.0816776 0.686401 0.722622
38.9517 5.58778 130.255 -0.00734684 0.645349 0.763798
33.8637 5.74992 129.924 -0.050066 0.612856 0.788607
28.8528 5.80089 129.423 -0.0949047 0.606645 0.789284
23.8429 5.938 128.591 -0.129974 0.596116 0.792306
21.0626 6.00527 128.065 -0.15633 0.569032 0.807318
20.413 2.0408 130.811 -0.1695 0.584755 0.793304
15.4558 2.09995 129.627 -0.213815 0.567266 0.795294
10.5837 2.06288 128.318 -0.228828 0.564851 0.792829
5.6647 2.06965 126.91 -0.235354 0.560036 0.794335
7.53871 3.75529 126.283 -0.225205 0.550431 0.803933
12.0056 5.99047 125.982 -0.213004 0.556809 0.802865
16.5156 8.3083 125.481 -0.191782 0.56337 0.803638
20.978 10.4933 124.821 -0.116445 0.585986 0.801911
25.6759 11.9452 124.436 -0.105181 0.587609 0.802274
30.6954 11.9858 124.938 -0.0760696 0.596778 0.798791
35.8143 11.9996 125.183 0.00963386 0.609145 0.792966
40.8589 12.1194 124.561 0.0795348 0.661674 0.745561
45.8096 12.0957 123.871 0.129752 0.663614 0.736726
50.6769 12.1383 122.624 0.204739 0.668416 0.715048
55.5165 12.1466 121.143 0.245804 0.681177 0.689622
60.1274 12.1402 119.201 0.301558 0.676947 0.67142
64.5967 12.1037 116.869 0.400052 0.67136 0.623886
68.7942 12.1354 114.093 0.419917 0.680116 0.600926
72.8068 12.1303 110.786 0.498746 0.669463 0.550519
76.5239 12.117 107.275 0.540948 0.667276 0.511974
79.8573 12.0768 103.535 0.580566 0.649308 0.491267
82.9033 12.09 99.4942 0.622008 0.642231 0.447849
85.6574 11.9946 95.29 0.679874 0.624363 0.384632
88.1798 11.9145 90.9486 0.697048 0.60901 0.378459
91.3868 10.0818 87.4846 0.725823 0.601501 0.333734
94.6224 8.09113 84.1029 0.751331 0.573896 0.325774
97.6507 6.30367 80.4555 0.742041 0.580348 0.335515
100.586 4.56765 76.6796 0.759809 0.567559 0.317115
103.458 2.8102 72.7898 0.764855 0.572191 0.295959
103.721 2.07325 73.5341 0.764221 0.572341 0.297307
101.825 2.08992 78.3285 0.756602 0.58058 0.300798
99.8987 2.03312 83.0922 0.737366 0.593591 0.322398
97.9602 1.99329 87.7002 0.730472 0.609969 0.307146
96.0396 1.95646 92.3684 0.709462 0.627347 0.321069
93.8467 1.96215 97.0634 0.700234 0.632955 0.330213
91.6636 1.90764 101.612 0.655763 0.662656 0.361748
89.1571 1.87544 105.951 0.635 0.673047 0.379187
86.4488 1.85292 110.171 0.600062 0.679644 0.421912
83.3103 1.83268 114.11 0.548645 0.699396 0.458076
79.8852 1.8117 117.934 0.505441 0.709056 0.491694
76.1331 1.76927 121.351 0.426703 0.721846 0.544836
72.1281 1.75808 124.351 0.368068 0.728356 0.577948
67.816 1.76791 126.879 0.330891 0.727007 0.601641
63.324 1.75616 129.157 0.241494 0.730254 0.639069
58.6184 1.79312 130.874 0.2496 0.71243 0.655853
53.7569 1.81009 132.294 0.135755 0.712078 0.688851
48.8197 1.75471 133.242 0.113051 0.704036 0.701108
43.7248 1.85885 133.58 0.0337686 0.675975 0.73615
38.5933 1.88656 133.438 -0.0257486 0.671764 0.740318
33.5038 1.92731 132.977 -0.100018 0.639333 0.762397
28.5111 1.97948 132.373 -0.0872823 0.614252 0.784268
23.5249 2.03428 131.482 -0.169897 0.58486 0.793141
20.6703 2.04082 130.866 -0.169534 0.584735 0.793311
20.5563 2.04086 130.841 -0.169559 0.584723 0.793315
