31.843 6.89195 -128.182 -0.217841 0.662999 -0.716224
36.5341 7.67776 -128.467 -0.127309 0.724501 -0.677415
41.6051 8.02128 -128.979 -0.0806432 0.750613 -0.655802
46.6012 8.39648 -128.762 -0.00792866 0.775872 -0.63084
51.6316 8.71054 -127.709 0.121793 0.813842 -0.568179
56.5137 8.7591 -126.467 0.136712 0.835282 -0.532511
61.2228 8.77974 -124.49 0.250383 0.841832 -0.478149
65.536 8.85779 -121.974 0.319143 0.830416 -0.45668
69.5869 8.83961 -118.926 0.354218 0.844376 -0.401944
73.2066 8.7003 -115.472 0.438041 0.821518 -0.36485
76.4927 8.47076 -111.55 0.500252 0.791468 -0.351178
79.1473 8.14471 -107.315 0.589477 0.762574 -0.266451
82.2408 6.91453 -103.647 0.637629 0.735602 -0.228733
82.4369 5.94679 -106.217 0.630613 0.741404 -0.229441
80.6218 5.72486 -111.012 0.577207 0.775152 -0.256848
78.5034 5.51264 -115.658 0.495 0.815254 -0.300561
75.8348 5.38179 -120.049 0.470926 0.82288 -0.317958
71.7034 6.10283 -122.763 0.33629 0.841617 -0.422599
67.3385 6.50887 -125.193 0.308098 0.847913 -0.431415
62.8633 6.62996 -127.458 0.236013 0.845074 -0.479633
58.3113 6.49429 -129.584 0.140132 0.840282 -0.523726
53.7383 5.76263 -131.608 0.0763446 0.821994 -0.564329
48.8113 5.72852 -132.179 0.00226097 0.799893 -0.599597
43.8371 5.96085 -131.634 -0.0868488 0.750564 -0.655062
38.9452 6.27382 -130.478 -0.146727 0.720566 -0.677684
34.1108 6.71221 -129.012 -0.184848 0.677479 -0.711909
31.8656 6.88745 -128.193 -0.217884 0.662908 -0.716296
30.2534 2.28548 -131.801 -0.255002 0.656723 -0.709711
34.9226 2.25618 -133.9 -0.295085 0.700062 -0.650261
39.8083 2.11869 -135.472 -0.140369 0.757634 -0.637383
44.7468 2.01052 -136.51 -0.0782388 0.775377 -0.626633
49.8014 1.98644 -137.073 -0.0573115 0.780253 -0.622832
54.7069 2.0933 -136.773 0.0686358 0.819128 -0.56949
59.3515 3.01605 -134.816 0.0831962 0.828262 -0.55413
63.9141 3.31145 -132.732 0.223006 0.845846 -0.484574
68.4105 3.36513 -130.486 0.256715 0.853176 -0.453982
72.7951 3.01064 -128.054 0.325279 0.843548 -0.42734
77.1632 2.50402 -125.5 0.428863 0.829983 -0.356658
80.6963 1.81954 -121.972 0.48604 0.81555 -0.314076
83.1344 1.91437 -117.562 0.55937 0.792937 -0.241571
85.15 1.94605 -112.841 0.566632 0.787031 -0.243947
86.7371 2.01185 -108.067 0.625036 0.762902 -0.16526
87.9029 2.07116 -103.08 0.654528 0.735132 -0.176563
89.073 2.3 -98.1834 0.716268 0.687465 -0.119786
89.9006 2.3196 -93.1498 0.737231 0.665412 -0.117118
89.305 3.49515 -90.8741 0.745202 0.650647 -0.145986
86.1624 6.11214 -93.9202 0.71101 0.690251 -0.134236
82.9562 8.6936 -96.8212 0.645551 0.71431 -0.270215
79.3201 10.694 -99.7008 0.633694 0.726289 -0.26634
76.0738 12.02 -103.325 0.55111 0.773006 -0.314171
73.4242 12.0999 -107.727 0.520856 0.786519 -0.331761
70.1752 12.2111 -111.519 0.419164 0.814765 -0.400572
66.3452 12.229 -115.07 0.36938 0.824461 -0.428745
62.1992 12.2652 -118.149 0.315001 0.830871 -0.458724
57.7847 12.2381 -120.495 0.248284 0.826709 -0.504883
53.0617 12.192 -122.256 0.1443 0.819563 -0.554522
48.1869 12.1889 -123.413 0.129287 0.810318 -0.571542
43.1159 11.991 -124.307 0.0131755 0.772379 -0.634954
38.0612 11.9277 -124.252 -0.0657958 0.725461 -0.685111
33.0153 11.8078 -123.722 -0.150895 0.69643 -0.701544
28.3487 10.2629 -124.138 -0.175961 0.662982 -0.727662
24.4571 7.22982 -125.034 -0.415607 0.581593 -0.6993
20.7122 3.88542 -125.616 -0.421983 0.531761 -0.734275
22.3195 2.57966 -127.644 -0.424571 0.582271 -0.693325
26.5872 2.5319 -130.258 -0.413128 0.589719 -0.693943
30.2366 2.286 -131.795 -0.247933 0.651647 -0.716771
30.2387 2.28595 -131.796 -0.255002 0.656723 -0.70971
