-46.4752 5.30698 37.4604 -0.420095 0.842657 0.336808
-44.7532 5.18771 39.896 -0.401408 0.851906 0.336345
-42.7374 5.21223 42.17 -0.385443 0.857253 0.341395
-40.5401 5.28545 44.3603 -0.374731 0.853053 0.363148
-38.2429 5.25511 46.5848 -0.343731 0.848203 0.40299
-35.8689 5.22792 48.4881 -0.308301 0.853067 0.420982
-33.4193 5.24068 50.2532 -0.293874 0.849903 0.437375
-30.7569 5.21299 51.947 -0.264007 0.855351 0.44573
-28.0856 5.23246 53.4109 -0.247448 0.850138 0.464795
-25.3364 5.21343 54.6948 -0.197148 0.852321 0.48444
-22.4442 5.22098 55.8194 -0.182455 0.85173 0.491189
-19.5315 5.23225 56.7344 -0.136399 0.84371 0.519181
-16.5197 5.22683 57.4758 -0.102586 0.844379 0.525834
-13.4864 5.15209 58.1415 -0.0970284 0.846386 0.523657
-10.3766 5.16071 58.5735 -0.0586192 0.84422 0.532781
-9.11221 6.20407 57.0752 -0.0604239 0.844941 0.531434
-9.08653 7.79836 54.513 -0.0671786 0.850316 0.521967
-9.15865 9.4109 51.9023 -0.0647933 0.843846 0.532648
-9.13743 11.0169 49.3631 -0.0766592 0.845673 0.528166
-9.16636 12.7318 46.6368 -0.0912492 0.843724 0.528965
-9.12673 14.333 44.0482 -0.102141 0.845836 0.523574
-9.08084 15.9141 41.4587 -0.127885 0.841703 0.524577
-9.04491 17.5714 38.8027 -0.140962 0.837212 0.5284
-9.09309 19.1688 36.2499 -0.147113 0.835618 0.529245
-9.14044 20.7819 33.6505 -0.173194 0.836845 0.519321
-9.13482 22.3865 31.1134 -0.177047 0.831854 0.525997
-9.04844 24.0294 28.5197 -0.188644 0.835286 0.516441
-8.97479 25.5889 25.9551 -0.226495 0.83649 0.498979
-8.98421 27.1821 23.2765 -0.246556 0.837463 0.487714
-8.87752 28.7389 20.6484 -0.262051 0.833266 0.486818
-8.50127 30.326 18.1021 -0.264411 0.838529 0.4764
-8.85914 31.4614 15.9084 -0.280571 0.833537 0.475917
-11.1312 30.5652 16.0778 -0.309108 0.83409 0.456859
-13.1354 28.8569 17.8333 -0.310529 0.836305 0.451845
-15.4194 27.2221 19.3127 -0.315026 0.842383 0.437207
-17.6545 25.6977 20.6104 -0.320494 0.839097 0.439546
-19.9293 24.1194 21.936 -0.33327 0.836813 0.43436
-22.1701 22.5081 23.2861 -0.35889 0.837527 0.412004
-24.3792 20.8905 24.6034 -0.368674 0.834622 0.409251
-26.6314 19.3144 25.8351 -0.37132 0.840022 0.395581
-28.9402 17.6541 27.1821 -0.385556 0.837754 0.38667
-31.1392 16.057 28.4547 -0.385261 0.838159 0.386079
-33.4531 14.4395 29.7505 -0.386893 0.849056 0.359744
-35.6773 12.8885 31.0587 -0.384098 0.85391 0.35115
-37.9275 11.2681 32.4763 -0.392172 0.852464 0.345696
-40.2466 9.67307 33.7878 -0.393015 0.853965 0.341003
-42.6184 8.06254 35.1317 -0.401214 0.854605 0.329663
-44.9945 6.40236 36.5078 -0.406393 0.851612 0.331061
-46.4181 5.37338 37.3643 -0.420353 0.845337 0.329659
-49.5709 5.63612 32.2088 -0.470039 0.823073 0.318771
-51.7422 3.88288 33.4976 -0.493189 0.815402 0.303123
-53.8205 2.08779 34.7127 -0.532463 0.789779 0.30452
-52.5316 1.90416 37.3816 -0.517155 0.797864 0.30978
-50.9037 1.91203 40.0013 -0.509271 0.795831 0.327465
-49.1065 1.8442 42.5706 -0.464951 0.804659 0.369248
-47.0306 1.87416 44.935 -0.438998 0.805056 0.398952
-44.9743 1.88162 47.1204 -0.437472 0.795306 0.419639
-42.7703 1.91995 49.2328 -0.406789 0.792265 0.454795
-40.4938 1.91038 51.2103 -0.37927 0.803825 0.458278
-38.081 1.89684 53.1521 -0.358539 0.796128 0.487473
-35.4804 1.89627 54.9592 -0.33234 0.79717 0.504013
-32.8233 1.89962 56.5791 -0.302972 0.800928 0.516441
-30.0864 1.89258 57.999 -0.258574 0.800502 0.540681
-27.3075 1.88364 59.2997 -0.234422 0.801408 0.550263
-24.516 1.86108 60.4419 -0.205936 0.810925 0.547713
-21.5955 1.87516 61.3803 -0.151711 0.811378 0.56449
-18.6286 1.86176 62.1688 -0.146942 0.817014 0.55758
-15.6226 1.87709 62.8775 -0.103607 0.816443 0.568055
-12.6358 1.87706 63.3392 -0.0827178 0.81052 0.579841
-9.58739 1.84485 63.6948 -0.0408875 0.809398 0.585835
-6.53609 1.8487 63.847 -0.0128584 0.810034 0.586241
-3.47317 1.87604 63.8229 0.00120764 0.799777 0.600297
-3.04136 3.61658 61.4414 -0.0117153 0.811556 0.584157
-3.12377 5.29809 58.9544 -0.0262248 0.835977 0.548137
-3.10084 6.95612 56.3931 -0.0331556 0.844468 0.534579
-3.11361 8.58638 53.8199 -0.0349599 0.843078 0.536654
-3.12547 10.208 51.2892 -0.037456 0.839374 0.542262
-3.0975 11.9209 48.663 -0.0509728 0.83505 0.547808
-3.14583 13.6015 46.1083 -0.0638528 0.831702 0.551538
-3.11921 15.3187 43.5354 -0.0740081 0.830193 0.552539
-3.13271 17.0708 40.8742 -0.0860212 0.834457 0.544318
-3.11035 18.7494 38.3403 -0.101427 0.829237 0.549617
-3.10697 20.4825 35.7168 -0.113562 0.829642 0.546624
-3.09229 22.1441 33.205 -0.130931 0.826231 0.547904
-3.14049 23.8447 30.6524 -0.148928 0.820829 0.551417
-3.05877 25.538 28.1682 -0.165864 0.818262 0.550397
-3.06345 27.2268 25.6096 -0.180766 0.824636 0.536001
-3.07118 28.8776 23.0185 -0.202638 0.830358 0.519078
-2.89373 30.532 20.3719 -0.206141 0.844381 0.494495
-2.05225 32.1089 17.9721 -0.201588 0.856172 0.475744
-1.32667 33.6568 15.4657 -0.162822 0.86089 0.482034
-2.26524 35.0593 12.9569 -0.157096 0.809584 0.565582
-5.27444 34.9667 12.0803 -0.233024 0.790564 0.566207
-8.01165 34.8388 10.7303 -0.353345 0.787455 0.505037
-10.4734 34.7149 9.00221 -0.394846 0.802008 0.448194
-13.152 33.5901 8.75716 -0.370322 0.830708 0.415674
-14.6257 31.9353 10.8165 -0.338877 0.842366 0.419024
-16.3987 30.2409 12.8211 -0.324236 0.841217 0.432689
-18.5449 28.6103 14.3015 -0.345708 0.830486 0.436782
-20.7916 26.9865 15.5615 -0.364226 0.829499 0.423404
-23.0057 25.338 16.8365 -0.388191 0.825915 0.408856
-25.1622 23.6756 18.0975 -0.406232 0.821403 0.400338
-27.3632 21.9692 19.3924 -0.407955 0.827328 0.386136
-29.6914 20.2144 20.7255 -0.412844 0.830923 0.372986
-31.967 18.505 22.0144 -0.412622 0.834284 0.365668
-34.2711 16.7943 23.3699 -0.40879 0.839618 0.357676
-36.5269 15.1572 24.648 -0.40735 0.841609 0.354627
-38.7802 13.5299 25.9579 -0.405102 0.845328 0.3483
-41.0474 11.8849 27.2964 -0.413785 0.844515 0.339964
-43.3236 10.2436 28.5947 -0.414353 0.845437 0.336967
-45.6025 8.6169 29.8858 -0.420102 0.847535 0.324342
-47.8746 6.94791 31.2316 -0.442381 0.838793 0.317374
-49.5362 5.66357 32.1891 -0.469548 0.82325 0.319036
-37.8017 9.89646 35.9641 -0.369912 0.861361 0.348171
-34.9936 10.9008 36.4393 -0.361828 0.857492 0.36577
-32.0292 11.8936 36.9177 -0.319928 0.865354 0.385757
-29.0644 12.8212 37.3788 -0.332762 0.853121 0.401813
-26.201 13.6712 37.8092 -0.303461 0.852898 0.424826
-23.3228 14.4557 38.214 -0.269529 0.854915 0.443255
-20.3747 15.1715 38.5936 -0.246019 0.856188 0.454331
-17.3669 15.8107 38.9408 -0.227756 0.85173 0.471894
-14.2954 16.3187 39.2224 -0.177269 0.845914 0.502997
-12.0669 16.659 39.4164 -0.170523 0.84585 0.505431
-12.2435 13.656 44.4413 -0.13256 0.850853 0.508406
-15.2207 13.2624 44.233 -0.157911 0.850551 0.501624
-18.1986 12.7762 43.9761 -0.191888 0.848467 0.493237
-21.2684 12.1919 43.6719 -0.220805 0.859976 0.460095
-24.2205 11.5351 43.3424 -0.249642 0.855539 0.453577
-27.1748 10.8163 42.9917 -0.270859 0.859926 0.432623
-30.0675 10.0516 42.6247 -0.296565 0.869491 0.395012
-33.0046 9.20022 42.2266 -0.312977 0.86584 0.390341
-35.9373 8.29156 41.8143 -0.348428 0.863458 0.364745
-38.8841 7.2534 41.3553 -0.374795 0.856404 0.355107
-40.0825 6.80117 41.1588 -0.382704 0.856558 0.346189
-32.6038 6.80589 47.6396 -0.302622 0.859523 0.411875
-29.5733 7.61955 47.9975 -0.267483 0.863355 0.427868
-26.6386 8.28443 48.2986 -0.223532 0.868396 0.44263
-23.6426 8.88931 48.5779 -0.201428 0.868945 0.452064
-20.5495 9.45407 48.8398 -0.193448 0.868857 0.455703
-17.4535 9.9733 49.0939 -0.183753 0.859554 0.476866
-14.2902 10.3892 49.3017 -0.132054 0.852139 0.50638
-12.1352 10.6425 49.4315 -0.121947 0.845338 0.520128
-12.099 7.63937 54.3804 -0.07145 0.849998 0.521918
-15.1621 7.36186 54.2563 -0.117173 0.853849 0.507161
-18.2563 6.98667 54.0862 -0.138714 0.861967 0.487618
-19.6315 6.7975 54.003 -0.15123 0.863361 0.481391
-12.1344 19.7079 34.3977 -0.182396 0.840131 0.510795
-15.1241 19.1824 34.0845 -0.201518 0.847856 0.490439
-18.0753 18.546 33.7169 -0.258742 0.83705 0.482079
-21.1659 17.7669 33.279 -0.293011 0.839543 0.457506
-24.0682 16.9583 32.8362 -0.309433 0.837607 0.450184
-27.004 16.03 32.3418 -0.340768 0.839476 0.423269
-29.9089 15.0594 31.8369 -0.377468 0.84199 0.385449
-30.7953 14.7404 31.6761 -0.369531 0.848551 0.378692
-23.4898 19.8053 27.6067 -0.330482 0.851073 0.407991
-20.6182 20.6656 28.0969 -0.319948 0.84476 0.428969
-17.7074 21.4723 28.5653 -0.275034 0.845577 0.457553
-14.6672 22.1991 28.9984 -0.254214 0.829199 0.4978
-12.2418 22.7329 29.3207 -0.24074 0.830092 0.502982
-11.9109 25.7396 24.2166 -0.257271 0.840335 0.477124
-14.8794 25.0359 23.7803 -0.285426 0.840114 0.461239
-16.5862 24.5711 23.4982 -0.311393 0.839385 0.445496
-16.6175 24.5623 23.493 -0.311493 0.839351 0.445491
