-48.6669 5.71825 -39.1642 -0.452908 0.83511 -0.312196
-46.8164 5.68881 -41.6519 -0.410973 0.843149 -0.346701
-44.8344 5.73531 -43.9077 -0.405415 0.843169 -0.353116
-42.7179 5.73746 -46.0612 -0.366357 0.838243 -0.403894
-40.4659 5.75513 -48.0985 -0.361345 0.836522 -0.411875
-38.1148 5.73336 -49.9643 -0.320273 0.837344 -0.443011
-35.6613 5.68712 -51.7744 -0.306597 0.838542 -0.450384
-33.0486 5.72224 -53.4439 -0.276405 0.844992 -0.457808
-30.4794 5.66355 -55.0434 -0.262383 0.845807 -0.464506
-27.7638 5.71758 -56.3683 -0.2264 0.843742 -0.486573
-24.9905 5.64565 -57.6312 -0.197158 0.83489 -0.513894
-22.1322 5.64366 -58.6516 -0.165873 0.847002 -0.505048
-19.1842 5.64835 -59.49 -0.134595 0.846333 -0.515369
-16.2078 5.6343 -60.2719 -0.114418 0.843638 -0.524579
-13.124 5.629 -60.841 -0.0876167 0.838607 -0.537645
-10.0697 5.66967 -61.2007 -0.0541378 0.846972 -0.528874
-9.48447 7.02254 -59.0342 -0.0435467 0.850895 -0.523528
-9.46615 8.66308 -56.3744 -0.0550941 0.851745 -0.521052
-9.50173 10.2576 -53.7644 -0.0634664 0.851114 -0.52113
-9.47671 11.8335 -51.1771 -0.0819412 0.851019 -0.518703
-9.4085 13.4574 -48.5468 -0.0973785 0.844731 -0.526256
-9.41249 15.0548 -46.0039 -0.107609 0.842441 -0.527933
-9.38674 16.6617 -43.4557 -0.115931 0.838265 -0.532796
-9.44102 18.2607 -40.9056 -0.124005 0.843851 -0.522049
-10.6318 19.6458 -38.3602 -0.148226 0.843612 -0.516088
-12.3234 20.6856 -36.0838 -0.167698 0.856559 -0.488041
-14.3581 21.4724 -33.9335 -0.188778 0.853314 -0.486023
-16.2987 22.202 -31.689 -0.24796 0.851242 -0.462497
-18.6315 22.5228 -29.7945 -0.275939 0.849375 -0.449911
-21.575 21.8152 -29.251 -0.318173 0.845578 -0.428676
-24.4197 20.8743 -28.9376 -0.337905 0.852124 -0.399631
-27.2856 19.6644 -29.009 -0.356553 0.852562 -0.382109
-30.2142 18.4756 -28.8752 -0.377441 0.844309 -0.380368
-32.6764 17.0039 -29.7329 -0.385533 0.852076 -0.354019
-34.9074 15.4322 -31.0779 -0.386361 0.851694 -0.354037
-37.1702 13.841 -32.3694 -0.406468 0.850333 -0.334243
-39.4014 12.2728 -33.6594 -0.407177 0.85004 -0.334079
-41.6847 10.6332 -35.0072 -0.414179 0.853884 -0.31518
-43.9527 9.07958 -36.3172 -0.414312 0.856767 -0.307072
-46.3556 7.40893 -37.7002 -0.420237 0.852521 -0.310819
-48.5929 5.79667 -39.0617 -0.45291 0.835107 -0.312199
-51.8341 5.79339 -33.7291 -0.481994 0.829821 -0.281194
-49.6352 7.49003 -32.3664 -0.464188 0.841268 -0.277125
-47.2661 9.21395 -31.0176 -0.449064 0.84752 -0.282933
-45.0328 10.8447 -29.7457 -0.447818 0.841636 -0.301841
-42.8279 12.4989 -28.4434 -0.444634 0.838931 -0.313839
-40.6013 14.1657 -27.1611 -0.443113 0.837849 -0.318841
-38.3188 15.8756 -25.8222 -0.434318 0.838653 -0.328678
-36.0658 17.5212 -24.5279 -0.418879 0.842773 -0.338044
-33.7473 19.2259 -23.2094 -0.416285 0.838176 -0.352374
-31.0311 20.6438 -22.9824 -0.404079 0.839742 -0.362703
-28.1406 21.8671 -23.2757 -0.382491 0.843039 -0.378134
-25.4574 23.1658 -23.0428 -0.367543 0.843805 -0.391022
-22.6113 24.1333 -23.565 -0.350087 0.850199 -0.393193
-19.7296 25.2738 -23.6219 -0.334034 0.841155 -0.425299
-16.9509 25.7713 -24.6608 -0.292808 0.843683 -0.449958
-14.3435 25.8799 -26.0545 -0.270452 0.841266 -0.468107
-12.1748 25.3349 -28.1231 -0.22633 0.840913 -0.491569
-10.1883 24.5623 -30.265 -0.201711 0.835706 -0.51074
-8.17361 23.7355 -32.3402 -0.168651 0.839555 -0.516434
-6.13389 22.7941 -34.4367 -0.140134 0.836179 -0.530239
-4.773 21.4838 -36.8611 -0.124807 0.840642 -0.527013
-3.26193 20.2167 -39.1887 -0.106554 0.840669 -0.530963
-3.18549 18.5539 -41.7585 -0.0992966 0.830647 -0.547874
-3.20805 16.8446 -44.3531 -0.0903164 0.83312 -0.545669
-3.19128 15.164 -46.9078 -0.0760415 0.830619 -0.551624
-3.22175 13.4987 -49.4226 -0.0653793 0.833653 -0.548406
-3.23537 11.7782 -52.0351 -0.0481819 0.835714 -0.547046
-3.19319 10.1213 -54.5526 -0.0346345 0.836945 -0.546184
-3.21239 8.40526 -57.1709 -0.0223499 0.835548 -0.548963
-3.21254 6.69036 -59.7595 -0.0040905 0.834515 -0.55097
-3.23521 4.9092 -62.3992 0.010016 0.827151 -0.56189
-3.20433 3.12538 -64.9257 0.0176177 0.809608 -0.586706
-4.72656 2.01199 -66.4325 0.0278819 0.782111 -0.622515
-7.76856 2.06753 -66.4227 -0.0135229 0.781081 -0.624236
-10.8339 2.03929 -66.2981 -0.0443894 0.788049 -0.61401
-13.9374 2.05653 -65.8912 -0.088301 0.788531 -0.608623
-17.095 2.07974 -65.3383 -0.118867 0.779655 -0.614822
-20.0407 2.06671 -64.6183 -0.157615 0.791372 -0.590666
-23.053 2.0644 -63.7446 -0.19073 0.782599 -0.592582
-25.9746 2.08029 -62.7087 -0.213471 0.7885 -0.5768
-28.8096 2.07519 -61.5613 -0.250477 0.77551 -0.579522
-31.6481 2.06688 -60.192 -0.292759 0.781969 -0.550285
-34.3185 2.05533 -58.7362 -0.308251 0.783171 -0.540023
-36.9668 2.11422 -57.0365 -0.343677 0.783533 -0.517645
-39.4559 2.10235 -55.3421 -0.375685 0.77637 -0.506058
-41.8679 2.08883 -53.5343 -0.385791 0.778992 -0.494305
-44.1726 2.10517 -51.6068 -0.413642 0.776058 -0.476061
-46.4724 2.09988 -49.5025 -0.432328 0.776175 -0.45896
-48.6866 2.09715 -47.2971 -0.472785 0.767729 -0.432485
-50.7641 2.05717 -44.8897 -0.480233 0.785463 -0.390414
-52.7131 2.03175 -42.4603 -0.4943 0.790419 -0.36179
-54.399 2.02533 -39.9105 -0.526216 0.788714 -0.317848
-55.8675 2.05764 -37.1784 -0.555149 0.782375 -0.282311
-54.8875 3.36119 -35.3806 -0.516146 0.8084 -0.282989
-52.6713 5.15585 -34.1608 -0.488214 0.826342 -0.280724
-51.9746 5.68808 -33.7971 -0.484114 0.82872 -0.280811
-42.5067 7.39555 -42.4162 -0.367519 0.862911 -0.346863
-39.6731 8.40202 -42.859 -0.35323 0.860992 -0.365952
-36.8147 9.37488 -43.2999 -0.347853 0.857833 -0.378313
-33.9664 10.3234 -43.7398 -0.33828 0.859647 -0.38285
-30.9653 11.1976 -44.1587 -0.290905 0.863421 -0.412163
-28.0176 11.9386 -44.5249 -0.25818 0.859269 -0.441589
-25.1023 12.6137 -44.8678 -0.246128 0.854263 -0.457882
-22.0464 13.2526 -45.2039 -0.215038 0.852898 -0.475735
-19.0016 13.811 -45.5041 -0.17737 0.850518 -0.495136
-15.8838 14.2714 -45.7592 -0.141173 0.847045 -0.512431
-12.8691 14.6203 -45.9541 -0.120959 0.847756 -0.51641
-12.5462 14.654 -45.9732 -0.118875 0.847094 -0.517978
-12.6986 11.4653 -51.2235 -0.113206 0.851365 -0.512212
-15.7442 11.1261 -51.0484 -0.130579 0.855288 -0.501429
-18.7413 10.7477 -50.8586 -0.164795 0.860095 -0.482783
-21.6997 10.2932 -50.6357 -0.177779 0.862834 -0.473194
-24.6931 9.74274 -50.3671 -0.21248 0.864024 -0.456414
-27.7579 9.10794 -50.0703 -0.240638 0.865847 -0.438637
-30.7364 8.41479 -49.7506 -0.251555 0.858151 -0.447545
-33.7262 7.63294 -49.3985 -0.289421 0.847126 -0.445661
-34.4453 7.43076 -49.3101 -0.3003 0.84658 -0.439456
-39.0631 11.0441 -37.0832 -0.388859 0.859363 -0.332091
-36.2032 12.0972 -37.5851 -0.370686 0.856237 -0.359793
-33.2774 13.133 -38.0919 -0.349116 0.858861 -0.374802
-30.3788 14.0684 -38.5645 -0.334552 0.857845 -0.390099
-27.5052 14.9058 -38.9998 -0.288648 0.859432 -0.42197
-24.6149 15.6689 -39.4119 -0.267163 0.85833 -0.438056
-21.5386 16.3865 -39.8177 -0.254794 0.847602 -0.465457
-18.536 16.995 -40.1714 -0.200845 0.846636 -0.492818
-15.5751 17.4803 -40.4597 -0.172011 0.84821 -0.500952
-12.83 17.8487 -40.6904 -0.140133 0.847877 -0.511339
-17.3823 20.2173 -34.835 -0.236268 0.859023 -0.454156
-20.4709 19.5523 -34.4217 -0.252653 0.861353 -0.440725
-23.4097 18.8229 -33.9882 -0.30039 0.857876 -0.41691
-26.3057 18.0024 -33.5211 -0.331019 0.851804 -0.406025
-29.1211 17.0821 -33.0186 -0.352369 0.852262 -0.386634
-31.3476 16.3383 -32.6225 -0.356109 0.85457 -0.378017
-21.6 7.31344 -56.0219 -0.159503 0.853712 -0.495717
-18.5942 7.71511 -56.1999 -0.135849 0.852843 -0.504187
-15.4557 8.09367 -56.3745 -0.114356 0.858301 -0.500242
-12.7898 8.33719 -56.4847 -0.0894665 0.858444 -0.505044
-12.707 8.34376 -56.4876 -0.0859293 0.858064 -0.506303
