-44.5246 7.61554 40.6177 -0.395726 0.853085 0.340066
-42.5263 7.57735 42.9726 -0.383837 0.855804 0.346794
-40.3746 7.62546 45.1528 -0.381417 0.847045 0.370183
-38.0959 7.66408 47.1902 -0.337985 0.856129 0.390908
-35.5916 7.66511 49.1319 -0.307686 0.856309 0.414796
-33.0759 7.67744 50.8938 -0.289274 0.848428 0.443272
-30.4907 7.62402 52.5201 -0.260775 0.855964 0.446454
-27.8148 7.63733 53.9836 -0.242427 0.85483 0.458789
-25.0564 7.60611 55.2375 -0.195668 0.852843 0.484121
-22.2034 7.62344 56.3089 -0.17655 0.856182 0.485574
-19.1392 7.61363 57.2835 -0.129347 0.845263 0.518458
-16.1615 7.56065 58.0311 -0.100893 0.839929 0.53323
-13.2162 7.50341 58.6371 -0.09439 0.840091 0.53417
-12.8777 9.0105 56.304 -0.0735132 0.852569 0.517395
-12.9015 10.6076 53.6374 -0.102314 0.855698 0.507237
-14.3905 11.486 51.7986 -0.125503 0.858321 0.497528
-17.3956 11.0875 51.6668 -0.142974 0.855654 0.497408
-20.4137 10.6816 51.4036 -0.164812 0.866977 0.470306
-23.3334 10.3946 50.7745 -0.196056 0.87059 0.451259
-26.1816 10.3308 49.5946 -0.224762 0.867749 0.443277
-28.6974 10.5565 47.8508 -0.244881 0.865711 0.436539
-30.8614 10.9357 45.6956 -0.28296 0.861587 0.4214
-32.6468 11.5269 43.1219 -0.305357 0.869275 0.388739
-34.5396 11.9001 40.7114 -0.338803 0.864883 0.370384
-36.6809 11.8918 38.6124 -0.353847 0.868132 0.348038
-39.1451 11.3039 37.4901 -0.374289 0.861078 0.344166
-41.5068 9.69168 38.8692 -0.388086 0.854125 0.346207
-43.8796 8.08905 40.1741 -0.389332 0.85557 0.341204
-44.5143 7.62354 40.6096 -0.395765 0.852753 0.340855
-49.1802 8.07726 33.4366 -0.453416 0.829859 0.32519
-51.3142 6.39297 34.7294 -0.472983 0.82715 0.303492
-53.5518 4.59569 35.9972 -0.514413 0.801888 0.303894
-55.3716 2.83015 37.3706 -0.548228 0.779432 0.303202
-53.8057 2.80612 40.1312 -0.518493 0.789606 0.328148
-52.088 2.8118 42.6512 -0.493654 0.791641 0.360014
-50.2366 2.77735 45.0809 -0.459942 0.800257 0.384655
-48.237 2.79725 47.343 -0.447209 0.79244 0.41478
-46.1259 2.80387 49.4909 -0.419272 0.793667 0.440793
-43.8055 2.81507 51.6242 -0.408629 0.794676 0.448902
-41.4486 2.84476 53.5978 -0.375317 0.798565 0.470565
-39.0146 2.8276 55.5106 -0.351674 0.796492 0.491855
-36.4284 2.83922 57.2396 -0.331437 0.786014 0.521852
-33.8009 2.82486 58.8259 -0.295884 0.793573 0.531687
-31.0251 2.82536 60.3122 -0.274094 0.791007 0.546974
-28.3019 2.80939 61.5907 -0.233004 0.797947 0.555869
-25.4969 2.83105 62.6614 -0.215086 0.791228 0.572447
-22.6681 2.76436 63.6773 -0.171346 0.794471 0.582628
-19.7338 2.79193 64.4967 -0.161191 0.805195 0.570637
-16.6945 2.76454 65.2332 -0.123334 0.796155 0.59239
-13.7036 2.76773 65.7534 -0.081067 0.801788 0.592061
-10.6523 2.78191 66.1448 -0.0585675 0.794889 0.603909
-7.60818 2.78455 66.3618 -0.0258193 0.802109 0.596611
-4.52314 2.83782 66.3057 0.0157608 0.795031 0.606364
-4.37113 4.64552 63.8554 -0.0157407 0.812257 0.583087
-4.40822 6.38137 61.3162 -0.0286334 0.836959 0.546516
-4.35233 8.08042 58.7052 -0.0310521 0.837814 0.545072
-4.36622 9.72776 56.1065 -0.036533 0.845406 0.532873
-4.36751 11.3435 53.5507 -0.0453335 0.841441 0.538444
-4.31186 13.0566 50.8956 -0.0524098 0.83931 0.54112
-4.35437 14.771 48.2687 -0.0662519 0.83483 0.546504
-5.9443 15.8689 46.4048 -0.078819 0.832461 0.548419
-8.99818 15.8861 45.8363 -0.100474 0.838843 0.535022
-11.9167 16.1022 44.84 -0.127552 0.845198 0.51901
-14.8014 15.937 44.3142 -0.154628 0.847279 0.508143
-17.8829 15.3467 44.2736 -0.178082 0.842784 0.507937
-20.8361 14.8928 43.8849 -0.226451 0.84164 0.490267
-23.5801 14.7902 42.6533 -0.268017 0.846152 0.460634
-25.5471 15.351 40.4189 -0.308476 0.84179 0.442982
-27.0858 16.053 37.9146 -0.334451 0.841349 0.424575
-29.2938 16.2605 35.6672 -0.34694 0.841953 0.413216
-31.486 16.2914 33.5885 -0.376775 0.84024 0.389908
-33.6039 16.3111 31.4655 -0.395086 0.83967 0.372641
-35.8282 16.1572 29.409 -0.399605 0.838096 0.371364
-38.6442 14.964 29.0751 -0.404125 0.847767 0.343474
-41.3461 13.7275 28.91 -0.414441 0.843353 0.342043
-43.7215 12.0398 30.2339 -0.41132 0.849212 0.331141
-45.9781 10.4048 31.5896 -0.419321 0.84856 0.322669
-48.2601 8.78319 32.8641 -0.432304 0.844039 0.317338
-49.0033 8.21437 33.3334 -0.449805 0.83255 0.323283
-49.1289 8.11726 33.4061 -0.45342 0.829857 0.325189
