-8.5406 25.6684 0.216755 -0.596948 0.800426 0.0534964
-8.13594 25.7102 -2.8459 -0.574515 0.801872 -0.163997
-7.57063 25.0909 -5.79381 -0.489568 0.790523 -0.367964
-7.14664 23.8412 -8.56891 -0.393289 0.795273 -0.461372
-4.92753 23.5464 -10.4654 -0.276832 0.785228 -0.553879
-2.30806 24.7771 -9.86327 -0.179511 0.785305 -0.592513
0.376668 25.7819 -8.96301 0.00351508 0.793357 -0.608747
3.17131 26.2138 -7.86027 0.213168 0.792028 -0.571924
5.71268 26.1856 -6.24414 0.440619 0.790195 -0.425965
8.11434 25.564 -4.235 0.563043 0.784315 -0.260371
10.298 24.3452 -2.43973 0.598091 0.796016 -0.0929857
11.0841 23.8691 -0.0798946 0.613546 0.789654 -0.00282367
10.2958 24.1649 2.73154 0.58116 0.796868 0.165089
8.07167 25.1004 4.66129 0.508277 0.792098 0.337935
5.68965 25.3406 6.66838 0.35697 0.803284 0.476767
3.09999 25.3071 8.18809 0.213095 0.801737 0.558189
0.207991 25.0518 9.05235 -0.000454705 0.790391 0.612602
-2.64403 25.455 8.06193 -0.208501 0.767167 0.606607
-5.2427 25.4936 6.57829 -0.405265 0.760438 0.507433
-7.70692 25.0705 4.74898 -0.503284 0.784025 0.363144
-8.43122 25.5562 1.71534 -0.58907 0.795184 0.143793
-8.5389 25.6527 0.43035 -0.596593 0.799681 0.0675295
-14.3643 22.1149 0.632449 -0.490723 0.869067 0.060944
-14.0157 21.8218 3.59528 -0.479513 0.848762 0.222866
-13.4414 21.121 6.45114 -0.440917 0.820579 0.363636
-12.4309 20.62 8.64521 -0.412567 0.81787 0.401095
-9.77692 21.1801 9.99156 -0.37042 0.810443 0.45384
-7.1875 21.3281 11.5979 -0.308072 0.808232 0.501849
-4.51879 21.2336 13.1471 -0.240975 0.805262 0.541742
-1.97395 20.6619 14.9271 -0.17548 0.821781 0.542098
0.367954 20.9213 15.1917 -0.116448 0.835618 0.536459
3.10175 21.5772 14.1741 0.0837647 0.861865 0.500173
6.05581 21.6016 13.1692 0.21752 0.843577 0.490981
8.70472 21.6338 11.6154 0.307539 0.844127 0.439168
11.1465 21.5297 9.52448 0.423112 0.848761 0.316896
13.4667 20.7453 7.77199 0.521728 0.82232 0.227135
15.6714 19.618 6.497 0.538903 0.826288 0.163669
16.0002 19.8996 3.5075 0.563564 0.817329 0.119867
16.5798 19.7833 0.360273 0.559399 0.82817 0.0347364
16.9802 19.4521 -2.6704 0.559544 0.826342 -0.0636495
17.0107 19.0787 -5.69003 0.537661 0.83466 -0.119337
15.463 19.8719 -6.99134 0.538551 0.830608 -0.141611
12.9556 21.3182 -7.91699 0.53084 0.829364 -0.174255
10.6704 22.3207 -9.63885 0.453561 0.865766 -0.211324
8.27416 22.7322 -11.5508 0.290155 0.904807 -0.311663
5.60936 22.6608 -13.1191 0.119594 0.89043 -0.43909
2.80753 22.24 -14.2125 -0.00178786 0.851051 -0.52508
0.123949 21.2433 -15.3818 -0.122563 0.822021 -0.556107
-1.86372 19.7828 -17.0704 -0.157061 0.830123 -0.535003
-3.75654 18.9903 -17.7174 -0.177533 0.833464 -0.523277
-6.24041 19.4299 -16.0511 -0.241656 0.825789 -0.509562
-8.88184 19.5186 -14.4729 -0.298169 0.823241 -0.483084
-11.6434 19.2164 -13.1456 -0.331219 0.833068 -0.443047
-14.456 18.6627 -11.9452 -0.353872 0.844934 -0.401071
-13.6572 20.1311 -9.60022 -0.375093 0.836132 -0.400232
-13.3259 21.5324 -6.80577 -0.407689 0.849615 -0.33458
-13.8699 22.1106 -3.8903 -0.450083 0.878605 -0.159512
-14.3552 22.1561 -0.910814 -0.480079 0.876757 -0.0286678
-14.3688 22.1171 0.542547 -0.486672 0.872113 0.0504217
-5.78254 27.7539 1.59066 -0.671787 0.721636 0.167164
-3.26786 29.5863 1.86876 -0.532646 0.795451 0.289043
-0.48281 30.6169 2.05743 -0.0151116 0.960562 0.277656
2.55774 30.1359 1.9458 0.403615 0.804492 0.43576
5.12073 28.5393 1.6752 0.643125 0.725055 0.246346
7.36241 26.6868 1.43092 0.620394 0.764831 0.17362
-0.747751 27.7857 -6.44115 -0.102919 0.754836 -0.647789
-3.68225 27.0858 -6.17203 -0.367975 0.753735 -0.544498
-4.38242 26.7796 -6.07386 -0.422299 0.759583 -0.494668
-4.49919 26.7257 -6.05705 -0.422299 0.759583 -0.494668
