-33.8104 5.33436 -31.4378 -0.39726 0.847107 -0.352967
-31.9441 5.17313 -33.7904 -0.373076 0.852765 -0.36552
-29.6659 5.17015 -35.9184 -0.338465 0.850651 -0.402287
-27.1966 5.18183 -37.856 -0.302181 0.858204 -0.414901
-24.635 5.19207 -39.5319 -0.267995 0.855855 -0.442369
-21.9935 5.17782 -41.0367 -0.238993 0.858261 -0.45417
-19.2087 5.16537 -42.3179 -0.193486 0.852275 -0.485994
-16.2964 5.44681 -42.9056 -0.166787 0.848898 -0.501552
-13.3015 6.1403 -42.6705 -0.149741 0.842099 -0.518119
-10.3328 6.85936 -42.2102 -0.102051 0.839996 -0.53291
-10.0872 8.47612 -39.7013 -0.111789 0.840413 -0.53029
-10.1115 10.0779 -37.1484 -0.126523 0.843604 -0.521847
-10.1226 11.732 -34.4714 -0.131789 0.840836 -0.525002
-10.0937 13.3431 -31.8184 -0.148103 0.849148 -0.506964
-10.052 14.8464 -29.2231 -0.184836 0.853126 -0.487864
-10.0315 16.321 -26.5936 -0.217061 0.852828 -0.474942
-10.0823 17.822 -23.8992 -0.220149 0.850404 -0.477857
-9.99932 19.3075 -21.2896 -0.238877 0.852476 -0.464989
-9.71831 20.8128 -18.6837 -0.264398 0.845451 -0.46401
-9.04045 22.4532 -16.1774 -0.271383 0.83192 -0.483997
-7.86496 24.1976 -13.9662 -0.276916 0.817366 -0.505204
-6.12594 25.9653 -12.1286 -0.263849 0.805326 -0.530854
-3.95983 27.6946 -10.6387 -0.253407 0.789758 -0.55863
-1.45027 29.1014 -9.63797 -0.145006 0.789901 -0.595843
1.33998 29.9533 -8.85431 0.0463624 0.796236 -0.603208
4.16449 30.1645 -7.64337 0.285681 0.824579 -0.48832
6.5938 29.9204 -5.8322 0.466199 0.816737 -0.339782
8.76182 29.1621 -3.85477 0.570541 0.793166 -0.213003
10.9427 27.8061 -2.04153 0.607199 0.793084 -0.0482461
13.2179 26.1447 -0.863578 0.584573 0.811092 -0.0201365
15.5919 24.4465 -0.173334 0.571559 0.820257 0.0223076
18.0883 22.7466 -0.225012 0.573937 0.818658 0.0198857
20.5713 21.0724 -0.690377 0.553244 0.832986 0.00585474
22.924 19.5096 -1.69713 0.554899 0.831868 -0.00909024
25.1865 17.9515 -2.98002 0.559435 0.82818 -0.0339189
27.4963 16.3678 -4.30381 0.542834 0.839209 -0.0325412
29.7598 14.815 -5.65093 0.539975 0.839416 -0.0616848
32.0501 13.2545 -6.93916 0.539494 0.839257 -0.0677438
34.3405 11.6223 -8.20841 0.530313 0.838963 -0.122099
36.5302 10.0238 -9.49973 0.531937 0.835439 -0.138146
38.7319 8.56495 -9.9235 0.528024 0.837928 -0.138083
40.4243 7.90746 -7.46654 0.51719 0.849418 -0.104889
42.1102 7.14332 -4.93271 0.521861 0.850755 -0.0622762
43.4696 6.48077 -2.36129 0.5181 0.854565 -0.0359344
43.5591 6.46342 0.750203 0.504434 0.863174 0.0216971
43.4204 6.43936 3.77677 0.50703 0.860578 0.0482301
41.9931 7.08339 6.39688 0.507228 0.855957 0.100287
40.3719 7.76883 8.83137 0.531188 0.840964 0.102822
38.5121 8.69064 10.5479 0.525859 0.840003 0.133524
36.2209 10.2845 9.24355 0.514749 0.849432 0.116182
33.8866 11.8927 7.95836 0.528991 0.842516 0.101604
31.5545 13.498 6.65414 0.532679 0.841121 0.0936331
29.2723 15.0903 5.35884 0.532944 0.843417 0.0679587
27.03 16.6132 4.05915 0.542766 0.837774 0.0594961
24.7447 18.1905 2.70591 0.550367 0.833865 0.0420202
22.464 19.777 1.47117 0.563874 0.824994 0.0376473
19.9873 21.4277 0.499235 0.550424 0.834312 0.0309321
17.5102 23.1321 0.213934 0.566 0.823561 0.0372906
14.9672 24.8666 0.393039 0.577884 0.815626 0.0283464
12.5127 26.6059 1.31041 0.593729 0.801011 0.0765984
10.1455 28.1377 2.77396 0.562815 0.815088 0.137372
7.9 29.1704 4.70678 0.511797 0.812441 0.279148
5.70976 29.4493 6.80312 0.389079 0.794374 0.46646
2.92056 29.4442 8.42169 0.198756 0.784188 0.58783
0.0757135 29.005 9.29287 -0.0367497 0.780053 0.624633
-2.72477 27.9382 10.1008 -0.186846 0.798902 0.571702
-5.11436 26.3573 11.3152 -0.262069 0.798484 0.541977
-7.07115 24.5724 12.9672 -0.294264 0.8077 0.510885
-8.45979 22.7822 15.0548 -0.300132 0.816129 0.49381
-9.38394 21.1352 17.3296 -0.277429 0.836617 0.472341
-9.87822 19.5495 19.8774 -0.253364 0.843388 0.473819
-10.0292 17.9501 22.6113 -0.241518 0.841032 0.484081
-10.0084 16.4116 25.2441 -0.243573 0.834326 0.494534
-10.0231 14.884 27.8843 -0.229651 0.837668 0.495554
-10.0092 13.2222 30.5763 -0.204773 0.825643 0.525716
-10.0403 11.6392 33.156 -0.170879 0.849285 0.499514
-10.1069 9.98971 35.8834 -0.159009 0.845399 0.509918
-12.3778 8.95962 36.8854 -0.165826 0.852217 0.496214
-15.3571 8.31747 36.8449 -0.227339 0.846426 0.481538
-18.2814 7.67977 36.5901 -0.23197 0.850808 0.471499
-20.9922 7.66771 35.0997 -0.287908 0.848043 0.444897
-23.8318 7.41992 33.6669 -0.317095 0.850141 0.42037
-25.3014 8.15807 31.0772 -0.334274 0.84479 0.417841
-27.046 8.66497 28.5634 -0.354031 0.84804 0.394317
-26.257 9.82831 26.79 -0.367992 0.845262 0.387443
-23.8991 11.4847 25.4116 -0.352217 0.841929 0.408775
-21.6996 13.053 24.1034 -0.347587 0.839711 0.417215
-19.4637 14.5817 22.8058 -0.317347 0.851504 0.417411
-17.1628 16.1242 21.4386 -0.315482 0.842141 0.437343
-14.8866 17.6666 20.1309 -0.309699 0.840282 0.444987
-12.5561 19.2865 18.7153 -0.303286 0.838313 0.453043
-10.489 20.9215 17.0513 -0.283659 0.838382 0.465461
-8.89579 22.5769 15.1305 -0.303341 0.817107 0.490224
-7.79398 24.3935 12.8212 -0.308346 0.809916 0.498957
-7.25348 26.1733 10.3418 -0.340783 0.798542 0.496109
-7.32311 27.7894 7.70377 -0.397131 0.792903 0.46216
-7.92216 28.9762 4.94101 -0.494223 0.779173 0.38553
-8.60122 29.604 2.01459 -0.579715 0.790171 0.198748
-8.64328 29.7983 -0.997754 -0.606589 0.793629 -0.0469459
-8.04394 29.593 -3.93882 -0.542143 0.796219 -0.268546
-7.4127 28.7161 -6.79018 -0.460378 0.787325 -0.410042
-7.25337 27.2794 -9.43275 -0.364403 0.796257 -0.482892
-7.53308 25.5162 -12.0517 -0.313946 0.803041 -0.506392
-8.48516 23.7649 -14.3228 -0.291587 0.813573 -0.503067
-9.86604 22.075 -16.3616 -0.274529 0.83461 -0.477555
-11.7902 20.4109 -18.2017 -0.278275 0.845354 -0.456005
-14.0983 18.8749 -19.6428 -0.293161 0.851909 -0.433936
-16.4201 17.3843 -21.009 -0.295776 0.852144 -0.4317
-18.6945 15.8699 -22.3934 -0.323198 0.849975 -0.416036
-21.045 14.2899 -23.7614 -0.339064 0.842998 -0.417598
-23.3447 12.7143 -25.1012 -0.341654 0.852095 -0.396481
-25.5821 11.1908 -26.4088 -0.361677 0.849935 -0.383146
-27.9109 9.60931 -27.7316 -0.382054 0.852318 -0.357194
-30.1283 8.0114 -29.0789 -0.391901 0.844661 -0.364639
-32.3266 6.4447 -30.3994 -0.386513 0.850468 -0.356807
-33.798 5.37189 -31.3609 -0.398159 0.847538 -0.350922
-37.5421 5.75176 -25.6524 -0.438279 0.841215 -0.316653
-35.3263 7.39204 -24.3826 -0.434595 0.840074 -0.324659
-33.0724 9.05854 -23.0634 -0.428234 0.841119 -0.330354
-30.8774 10.6798 -21.7719 -0.42421 0.839101 -0.340522
-28.631 12.3235 -20.5007 -0.414033 0.839465 -0.351958
-26.3759 13.9948 -19.2229 -0.411975 0.835201 -0.364301
-24.2103 15.6081 -17.9006 -0.391562 0.840799 -0.373812
-21.864 17.2568 -16.6136 -0.375567 0.843986 -0.382932
-19.5211 18.9326 -15.2141 -0.361999 0.845158 -0.39327
-17.2541 20.5021 -13.9104 -0.351867 0.843898 -0.405001
-15.2585 22.1194 -12.3128 -0.358621 0.836479 -0.414361
-13.8833 23.814 -10.126 -0.376934 0.829205 -0.412723
-13.3725 25.3198 -7.42026 -0.416933 0.837452 -0.353303
-13.7166 26.0949 -4.50241 -0.435823 0.873902 -0.215296
-14.3409 26.2314 -1.34602 -0.503257 0.862307 -0.0556612
-14.3667 26.1048 1.68819 -0.511311 0.849841 0.127794
-13.8024 25.7119 4.63589 -0.460447 0.840386 0.285903
-13.374 24.7972 7.45871 -0.415448 0.826491 0.379882
-13.8473 23.3014 10.0729 -0.38175 0.825955 0.414807
-15.1553 21.6542 12.2058 -0.360508 0.83611 0.413455
-17.1404 20.0237 13.7984 -0.358906 0.836415 0.414242
-19.481 18.3373 15.1871 -0.365493 0.838862 0.403372
-21.7247 16.7019 16.4911 -0.393732 0.833675 0.387249
-24.0513 14.9615 17.8511 -0.40105 0.834363 0.378151
-26.3303 13.2756 19.1462 -0.408778 0.837409 0.362832
-28.5147 11.6443 20.4232 -0.415381 0.835707 0.359236
-30.7898 9.97216 21.7068 -0.412966 0.841461 0.348429
-33.0078 8.34989 23.0248 -0.415549 0.842148 0.343665
-35.2692 6.70635 24.3211 -0.414584 0.842588 0.343753
-37.2113 5.16587 25.8231 -0.407429 0.850429 0.332823
-35.4541 5.02721 28.2315 -0.394671 0.852075 0.343808
-33.1881 5.21136 30.3465 -0.372866 0.85526 0.359852
-31.1103 5.1333 32.5968 -0.342161 0.867317 0.361506
-29.8507 4.43581 35.3222 -0.322084 0.869751 0.373893
-28.4004 3.77128 38.0177 -0.294775 0.87113 0.392734
-25.6286 4.08008 39.346 -0.274583 0.871129 0.40711
-22.8974 4.30761 40.616 -0.244228 0.877555 0.412607
-20.34 4.15812 42.2395 -0.195057 0.874059 0.444942
-17.4089 4.62675 42.624 -0.191938 0.859765 0.47324
-14.4214 5.18198 42.7098 -0.15214 0.855962 0.494146
-11.4628 5.6861 42.7052 -0.125587 0.84864 0.513837
-8.47341 6.24797 42.4001 -0.09214 0.848061 0.521826
-5.36436 6.45718 42.536 -0.0707858 0.839845 0.538191
-3.42603 7.36261 41.3695 -0.0609016 0.833224 0.549571
-3.46059 9.01175 38.8453 -0.0720056 0.833892 0.547209
-3.47885 10.7129 36.2793 -0.0918435 0.831667 0.547626
-3.4323 12.4227 33.682 -0.100626 0.834587 0.541608
-3.42114 14.1256 31.0906 -0.117564 0.829979 0.545264
-3.41119 15.8136 28.4967 -0.138917 0.831859 0.53732
-3.41721 17.4453 25.9668 -0.153648 0.831139 0.534415
-3.44074 19.0537 23.4164 -0.175875 0.837317 0.517654
-3.2874 20.695 20.8359 -0.187291 0.834724 0.517834
-2.64809 22.346 18.416 -0.191001 0.827847 0.52742
-1.12946 24.0106 16.3138 -0.158387 0.831928 0.531798
1.24246 25.2529 14.8536 -0.0603939 0.850831 0.521932
4.11965 25.6711 13.9777 0.114513 0.848264 0.516992
6.8973 25.7888 12.7866 0.236568 0.8516 0.467774
9.47565 25.8119 11.035 0.32018 0.873184 0.36747
11.7581 25.5228 8.88892 0.464639 0.843711 0.268303
14.2003 24.4291 7.43662 0.528402 0.829326 0.181686
16.7439 22.8933 6.88819 0.541819 0.827748 0.145768
19.27 21.1942 7.32042 0.533419 0.835904 0.129342
21.5702 19.5721 8.50275 0.52117 0.843343 0.130971
23.8108 17.9824 9.81579 0.519572 0.843122 0.138523
26.0083 16.4017 11.1049 0.520539 0.839552 0.155527
28.2251 14.7665 12.3769 0.524326 0.83528 0.165501
30.446 13.1197 13.6127 0.520323 0.83229 0.191202
32.6442 11.4493 14.8761 0.519625 0.829689 0.203971
34.8644 9.74281 16.1701 0.504917 0.833243 0.22531
37.19 7.95067 17.4872 0.510024 0.828254 0.2321
39.3955 6.25398 18.7569 0.504902 0.82995 0.237187
41.3749 5.48372 17.2548 0.497815 0.837674 0.224684
43.2607 4.96747 14.8552 0.498552 0.846651 0.185917
45.0016 4.43082 12.3709 0.501801 0.851066 0.154539
46.69 3.84764 9.8869 0.496454 0.859218 0.123531
48.2584 3.27768 7.32213 0.497259 0.863361 0.0856773
49.3612 2.88018 4.51146 0.500338 0.863607 0.0620116
49.3386 3.01967 1.45841 0.499345 0.866216 0.0179738
49.298 3.03076 -1.58284 0.503701 0.863459 -0.0269091
49.0775 3.02229 -4.61252 0.497331 0.865995 -0.0520953
47.6623 3.62407 -7.2198 0.496487 0.863511 -0.088591
46.0005 4.26948 -9.67358 0.492623 0.858653 -0.141555
44.2037 4.87972 -12.1537 0.503169 0.84975 -0.157312
42.5189 5.40696 -14.5937 0.504407 0.845248 -0.176435
40.7051 5.88061 -17.0699 0.503583 0.834172 -0.224858
38.6817 6.77331 -18.3631 0.516035 0.825926 -0.227054
36.5171 8.48403 -17.0866 0.522699 0.826049 -0.210782
34.3154 10.2042 -15.8139 0.532748 0.821307 -0.204044
32.0761 11.9385 -14.549 0.525003 0.831398 -0.18202
29.8251 13.6684 -13.2529 0.536921 0.826944 -0.166972
27.631 15.3423 -11.9882 0.543781 0.825422 -0.151593
25.3259 17.0674 -10.6929 0.537303 0.832259 -0.136566
23.0923 18.7185 -9.33957 0.532887 0.837456 -0.121234
20.8549 20.3111 -8.07414 0.533101 0.838392 -0.113553
18.3313 22.0803 -7.08118 0.545586 0.830403 -0.112991
15.8289 23.7544 -6.96312 0.552463 0.823801 -0.126973
13.3419 25.2411 -7.75689 0.532052 0.83061 -0.164337
11.0083 26.2179 -9.48595 0.462307 0.855181 -0.234236
8.72492 26.5423 -11.4186 0.30486 0.876169 -0.373348
6.11548 26.5252 -13.1086 0.194194 0.85364 -0.483309
3.28288 26.2806 -14.1643 0.0497218 0.852769 -0.519916
0.443354 25.4876 -15.2133 -0.108133 0.82493 -0.554795
-1.6346 24.0692 -16.8493 -0.161265 0.82419 -0.542867
-2.98115 22.2715 -19.1778 -0.179583 0.830979 -0.526518
-3.41785 20.5804 -21.7438 -0.16975 0.839279 -0.516522
-3.42021 18.9589 -24.3976 -0.150059 0.84322 -0.5162
-3.37311 17.3696 -27.0049 -0.135076 0.84519 -0.517116
-3.42409 15.7267 -29.6515 -0.12033 0.841074 -0.527367
-3.42979 14.1283 -32.1937 -0.0984303 0.839227 -0.534798
-3.43234 12.435 -34.8372 -0.0972778 0.836243 -0.539658
-3.4827 10.7766 -37.3788 -0.0901809 0.834043 -0.544279
-3.45882 9.03449 -40.043 -0.0790556 0.832675 -0.548087
-3.40459 7.36557 -42.5666 -0.0716948 0.82954 -0.553826
-3.43391 5.641 -45.1442 -0.0591208 0.832319 -0.551135
-4.17152 4.1961 -47.2641 -0.0569824 0.837403 -0.543608
-7.13829 3.78726 -47.572 -0.0650091 0.840775 -0.537468
-10.2397 3.21257 -48.0842 -0.0765935 0.853128 -0.516021
-13.1799 2.58278 -48.6017 -0.108681 0.853009 -0.510445
-16.1409 2.09585 -48.7186 -0.135952 0.858845 -0.493858
-19.0968 1.7138 -48.4947 -0.160354 0.863499 -0.478173
-22.0328 1.70671 -47.3662 -0.19651 0.866942 -0.458035
-24.8212 1.71667 -46.0428 -0.229731 0.865927 -0.444291
-27.562 1.73406 -44.5028 -0.255744 0.86614 -0.429409
-30.0734 1.73716 -42.839 -0.297833 0.862201 -0.409755
-32.5868 1.67789 -41.0202 -0.331112 0.861686 -0.384529
-34.8741 1.69172 -38.9523 -0.339797 0.866514 -0.365637
-37.0025 1.69509 -36.8082 -0.367061 0.864869 -0.342443
-38.9137 1.79349 -34.3738 -0.394767 0.860701 -0.321482
-40.1004 2.23033 -31.6427 -0.42116 0.854784 -0.303264
-41.08 2.72894 -28.8422 -0.43261 0.848379 -0.305125
-39.8984 4.011 -26.991 -0.4425 0.841328 -0.31042
-37.5792 5.72412 -25.6745 -0.438281 0.841213 -0.316654
-28.8048 6.98683 -32.728 -0.359402 0.850809 -0.383345
-25.9246 7.93116 -33.1494 -0.320801 0.850994 -0.415807
-23.0731 8.78465 -33.5463 -0.291882 0.861774 -0.41491
-20.0069 9.59749 -33.9344 -0.265863 0.858129 -0.439239
-17.0255 10.3139 -34.2857 -0.242958 0.844971 -0.47644
-14.0212 10.9038 -34.5842 -0.193322 0.846281 -0.496422
-13.4233 11.0059 -34.6359 -0.18507 0.847649 -0.497233
-13.4345 7.98708 -39.6535 -0.150354 0.842802 -0.516797
-16.5115 7.47602 -39.4124 -0.204998 0.843897 -0.495796
-19.3274 6.92551 -39.1602 -0.222011 0.851186 -0.475598
-22.2666 11.6 -28.3059 -0.306628 0.855382 -0.417494
-19.3404 12.4376 -28.7309 -0.29852 0.853697 -0.426717
-16.4295 13.2133 -29.1338 -0.271183 0.864433 -0.423339
-13.5681 13.8819 -29.4877 -0.236242 0.864797 -0.443076
-13.3291 16.686 -24.2729 -0.260872 0.852527 -0.452929
-14.9028 16.3024 -24.0652 -0.273056 0.849688 -0.451078
-5.19944 31.53 -4.17566 -0.472023 0.807209 -0.354412
-2.28257 32.7998 -4.46011 -0.299329 0.826301 -0.477105
0.774619 32.8598 -4.50817 0.0891563 0.91533 -0.39271
3.76601 32.1093 -4.3423 0.357274 0.825711 -0.436529
4.06817 31.9864 -4.32062 0.381125 0.814312 -0.437767
5.70724 31.3769 3.10801 0.562855 0.763545 0.316533
2.91401 32.9625 3.4068 0.398381 0.837581 0.373833
-0.121725 33.3535 3.47184 -0.142264 0.852647 0.502747
-3.02412 32.6099 3.26018 -0.276385 0.868674 0.411116
-5.67301 31.4157 3.03391 -0.537837 0.770839 0.341378
-13.272 16.5432 23.233 -0.293158 0.833332 0.468633
-13.6248 16.4481 23.1812 -0.293689 0.833192 0.468549
-13.3757 13.6308 28.3801 -0.24416 0.837367 0.489083
-16.3549 12.9486 28.0234 -0.258034 0.844252 0.469742
-19.2772 12.1952 27.6391 -0.30157 0.852252 0.427461
-20.8607 11.7344 27.4079 -0.327329 0.845353 0.422178
-19.1708 9.47389 32.8788 -0.282037 0.842594 0.458793
-16.1076 10.1699 33.2124 -0.228754 0.847563 0.478861
-13.4345 10.7105 33.4806 -0.209933 0.852809 0.478169
30.9151 14.2148 2.51226 0.534535 0.843875 0.0463514
33.4973 12.5886 2.48729 0.52803 0.848088 0.0439435
36.0971 10.9452 2.46018 0.535841 0.843948 0.025018
38.672 9.34056 2.42917 0.526943 0.849488 0.0264783
40.6501 8.1464 2.4047 0.513767 0.857456 0.0285027
39.1201 9.03518 -4.08891 0.519047 0.85241 -0.063139
36.4756 10.661 -4.13922 0.528288 0.847162 -0.056815
33.9478 12.2454 -4.17984 0.53017 0.846568 -0.0473527
33.9004 12.275 -4.18052 0.533734 0.844203 -0.049494
