-35.6534 5.31363 -32.5256 -0.407797 0.845307 -0.345192
-33.7139 5.24284 -34.8473 -0.375914 0.856108 -0.354638
-31.5046 5.24193 -36.9581 -0.345181 0.85715 -0.382276
-29.1676 5.23895 -38.9095 -0.335445 0.845735 -0.41498
-26.6911 5.27539 -40.6254 -0.287345 0.850339 -0.440859
-24.1056 5.27083 -42.1913 -0.247655 0.856964 -0.451964
-21.3075 5.24866 -43.605 -0.210555 0.855162 -0.473659
-18.4764 5.22246 -44.7873 -0.177533 0.85147 -0.493438
-15.575 5.30428 -45.6192 -0.146108 0.854129 -0.499115
-12.6119 5.332 -46.3215 -0.106022 0.850857 -0.514589
-10.276 5.76262 -46.0582 -0.0907553 0.844119 -0.528419
-10.2407 7.37933 -43.4889 -0.0963824 0.841812 -0.531096
-10.241 9.01495 -40.9123 -0.110427 0.839731 -0.531655
-10.1858 10.6387 -38.3715 -0.126499 0.83714 -0.53216
-10.223 12.2863 -35.7424 -0.142984 0.839513 -0.524182
-10.2245 13.8201 -33.1569 -0.152919 0.86093 -0.485196
-10.1714 15.346 -30.4881 -0.174464 0.855918 -0.486793
-10.183 16.8829 -27.7679 -0.209071 0.849796 -0.483876
-10.1567 18.3875 -25.1392 -0.223376 0.847076 -0.482248
-10.1777 19.9129 -22.3921 -0.2429 0.853873 -0.460326
-10.0689 21.4574 -19.6532 -0.25924 0.843771 -0.469942
-9.53829 23.0802 -17.0719 -0.283388 0.832288 -0.476428
-8.69511 24.5547 -15.0526 -0.287466 0.822208 -0.491261
-9.25332 23.9717 -15.7045 -0.286106 0.82453 -0.488153
-10.9389 22.2975 -17.6173 -0.280245 0.836647 -0.470621
-13.1426 20.6655 -19.2948 -0.283607 0.850266 -0.443406
-15.4777 19.181 -20.6666 -0.287718 0.855454 -0.430595
-17.7842 17.7115 -22.0118 -0.303494 0.851 -0.428549
-20.1079 16.1426 -23.4223 -0.330585 0.852445 -0.405033
-22.4177 14.5878 -24.6958 -0.346405 0.846647 -0.403972
-24.6508 13.0527 -26.0186 -0.351547 0.855421 -0.380356
-26.881 11.5181 -27.3347 -0.377292 0.852133 -0.362658
-29.3174 9.8603 -28.6895 -0.385394 0.846809 -0.366587
-31.5079 8.28236 -30.0188 -0.386218 0.849183 -0.360169
-33.7375 6.72657 -31.3224 -0.385002 0.851369 -0.356293
-35.6272 5.33706 -32.4992 -0.407795 0.845309 -0.345191
-39.2697 5.76166 -26.7472 -0.443035 0.839401 -0.314843
-41.5162 4.12748 -27.9779 -0.439822 0.843784 -0.307544
-43.8346 2.41599 -29.3567 -0.448589 0.84506 -0.290931
-43.3806 1.84431 -31.6952 -0.435033 0.85146 -0.29285
-41.646 1.76443 -34.4106 -0.42124 0.852392 -0.309813
-39.7597 1.74666 -36.8343 -0.394915 0.854568 -0.337278
-37.7167 1.74642 -39.0818 -0.362067 0.863937 -0.350026
-35.5556 1.74217 -41.1909 -0.332792 0.868227 -0.367985
-33.1294 1.77409 -43.2088 -0.313487 0.865057 -0.391667
-30.6879 1.77646 -45.0016 -0.286709 0.861137 -0.419811
-27.992 1.76501 -46.7028 -0.254878 0.860125 -0.44184
-25.2533 1.73696 -48.225 -0.232104 0.862067 -0.450518
-22.5074 1.72713 -49.5099 -0.199397 0.864454 -0.461476
-19.6299 1.74411 -50.5389 -0.158807 0.860213 -0.484566
-16.6238 1.77647 -51.3542 -0.121022 0.861661 -0.492843
-13.6488 1.75493 -52.0401 -0.0938417 0.862256 -0.497692
-10.6474 1.77631 -52.4846 -0.0660656 0.857443 -0.51032
-7.50306 1.81261 -52.7749 -0.0443337 0.851803 -0.521983
-4.37433 1.85995 -52.8943 -0.0244647 0.840932 -0.540588
-3.48046 3.21219 -50.8483 -0.035133 0.836203 -0.547294
-3.47318 4.89229 -48.2997 -0.0497116 0.833594 -0.550136
-3.42139 6.58188 -45.7411 -0.0614291 0.832657 -0.550372
-3.47381 8.27733 -43.1978 -0.0727261 0.829386 -0.553922
-3.50335 10.0406 -40.5352 -0.0793405 0.832752 -0.547929
-3.45023 11.6798 -38.0154 -0.082951 0.838178 -0.539052
-3.46645 13.3465 -35.434 -0.094468 0.838386 -0.536829
-3.45739 15.0005 -32.8568 -0.102828 0.836813 -0.537746
-3.46377 16.6224 -30.2723 -0.127048 0.842004 -0.524298
-3.44029 18.3076 -27.5787 -0.136676 0.842123 -0.521673
-3.46489 19.8781 -25.0201 -0.154142 0.840098 -0.520073
-3.45995 21.5369 -22.3587 -0.168253 0.836235 -0.521921
-3.20211 23.2141 -19.7748 -0.183389 0.831245 -0.524785
-2.18129 24.8974 -17.4847 -0.187915 0.827025 -0.529828
-0.313786 26.4378 -15.67 -0.137847 0.831225 -0.538552
2.23081 27.4655 -14.453 -0.0233049 0.845731 -0.5331
5.11288 27.8337 -13.4961 0.141672 0.86436 -0.482505
7.93918 27.9232 -12.0285 0.2608 0.874022 -0.409929
10.2682 27.7629 -10.1419 0.401577 0.862466 -0.308039
12.5118 27.0399 -8.19942 0.520688 0.838661 -0.159785
14.9661 25.646 -7.09835 0.545186 0.828592 -0.12725
17.5333 23.9878 -6.90809 0.54809 0.829256 -0.109234
19.9742 22.2986 -7.57971 0.542108 0.832176 -0.116618
22.2172 20.6779 -8.81192 0.532882 0.837867 -0.118388
24.5265 18.9945 -10.1619 0.539256 0.832439 -0.12747
26.7235 17.3715 -11.4521 0.538832 0.831487 -0.135237
28.9162 15.7233 -12.7031 0.542867 0.826199 -0.150568
31.0995 14.0488 -13.9441 0.545267 0.820644 -0.170931
33.2489 12.3777 -15.2319 0.533048 0.823483 -0.19424
35.418 10.6716 -16.4832 0.525616 0.825852 -0.204195
37.6542 8.94885 -17.6896 0.524291 0.823143 -0.218064
39.8984 7.16501 -19.0256 0.516411 0.825208 -0.228803
42.0668 5.47236 -20.2361 0.502742 0.828238 -0.247531
44.2644 3.77778 -21.513 0.488792 0.833008 -0.259183
46.4886 2.07107 -22.8561 0.474235 0.839991 -0.26366
48.2094 1.84045 -20.3914 0.476264 0.845765 -0.24053
49.4922 1.8429 -17.6149 0.482763 0.850058 -0.210576
50.7109 1.79053 -14.8549 0.485218 0.855194 -0.182226
51.7909 1.74552 -11.9666 0.490033 0.857468 -0.156887
52.5961 1.77369 -8.89073 0.503842 0.855938 -0.116222
53.1447 1.76276 -5.93614 0.510356 0.857027 -0.0710077
53.4511 1.76864 -2.85746 0.509181 0.860099 -0.0310168
53.5821 1.77375 0.187378 0.508048 0.861205 -0.0146108
53.5284 1.75774 3.1945 0.513746 0.857049 0.0390367
53.2463 1.72262 6.19733 0.501158 0.862029 0.0758069
52.6679 1.74521 9.16827 0.500559 0.859107 0.106604
51.8677 1.75831 12.2328 0.48173 0.862537 0.154808
50.8945 1.75769 15.0861 0.473261 0.863712 0.173282
49.7193 1.76762 17.9139 0.47383 0.856784 0.20348
48.3563 1.81577 20.7113 0.473579 0.85161 0.224677
46.7501 2.07289 22.9398 0.47506 0.843489 0.250679
44.4891 3.72151 21.6718 0.483775 0.84063 0.243505
42.2624 5.4051 20.3589 0.494996 0.833804 0.244428
39.9969 7.14905 19.032 0.503624 0.831182 0.235583
37.833 8.81425 17.7908 0.510405 0.828036 0.232043
35.5374 10.5995 16.4631 0.512154 0.831096 0.216743
33.3155 12.2976 15.1858 0.51637 0.832804 0.199498
31.0822 13.9865 13.9059 0.519347 0.833714 0.187618
28.859 15.6306 12.6378 0.522926 0.83644 0.164062
26.6467 17.2602 11.3803 0.525372 0.837046 0.152758
24.4011 18.8702 10.0897 0.525519 0.840394 0.132545
22.1699 20.4651 8.80384 0.530504 0.838225 0.126268
19.8872 22.1109 7.54516 0.534467 0.835757 0.125915
17.4327 23.7937 6.87979 0.539259 0.832373 0.127887
14.8276 25.4284 7.14105 0.529441 0.833376 0.158564
12.3483 26.6658 8.42256 0.494899 0.833684 0.244371
10.045 27.2022 10.432 0.39954 0.855448 0.329508
7.61258 27.306 12.2951 0.277924 0.847138 0.452818
4.86382 27.2213 13.6961 0.122883 0.854503 0.504341
1.98635 26.8655 14.4568 -0.031388 0.856067 0.51591
-0.542015 25.8089 15.7613 -0.140987 0.841621 0.521289
-2.30098 24.2847 17.6356 -0.184215 0.832748 0.522107
-3.27582 22.534 20.0533 -0.198702 0.82945 0.522043
-3.4586 20.8265 22.7089 -0.187518 0.829667 0.525823
-3.4823 19.1937 25.2797 -0.160821 0.831859 0.531175
-3.47562 17.5553 27.8253 -0.143574 0.829012 0.540487
-3.4543 15.8869 30.4081 -0.128079 0.832422 0.539137
-3.4901 14.1544 33.063 -0.110354 0.833054 0.542073
-3.49386 12.4678 35.6461 -0.0955572 0.831763 0.546843
-3.48117 10.801 38.1658 -0.079051 0.829458 0.552945
-3.5036 9.14188 40.6924 -0.0683853 0.834601 0.546593
-3.47346 7.4461 43.2757 -0.0529971 0.835373 0.547123
-3.47389 5.75429 45.8661 -0.0499491 0.838416 0.542738
-3.47145 4.08504 48.4509 -0.0387173 0.840158 0.540958
-3.44279 2.4154 51.0608 -0.0300057 0.843136 0.536863
-5.60069 1.834 51.8423 -0.0360244 0.845206 0.533224
-8.70476 1.8136 51.5908 -0.0561443 0.851458 0.521408
-11.7281 1.7839 51.2193 -0.0879275 0.853171 0.514167
-14.768 1.75968 50.6396 -0.112805 0.860206 0.497314
-17.827 1.75279 49.8356 -0.139598 0.865279 0.48146
-20.7871 1.73635 48.8386 -0.187643 0.866302 0.462929
-23.6364 1.68761 47.6772 -0.20708 0.869667 0.448104
-26.3126 1.7121 46.2861 -0.233564 0.867838 0.438495
-28.8924 1.72127 44.7252 -0.272702 0.866377 0.418359
-31.384 1.70979 42.9881 -0.306503 0.866922 0.393068
-33.7544 1.67714 41.0864 -0.32811 0.869074 0.370209
-35.9022 1.7197 38.9692 -0.349408 0.865415 0.359125
-38.0344 1.70164 36.8225 -0.358767 0.870574 0.336731
-39.9802 1.76127 34.4562 -0.383199 0.864188 0.326094
-41.9155 1.79516 31.991 -0.411613 0.85529 0.314727
-43.6277 1.85049 29.5103 -0.433529 0.845334 0.312193
-41.6178 3.42329 28.0334 -0.427958 0.842227 0.327882
-39.3332 5.09501 26.6705 -0.42056 0.844136 0.332512
-36.9715 6.76988 25.3626 -0.410506 0.846109 0.339977
-34.6893 8.41589 24.067 -0.413181 0.842306 0.346121
-32.5059 10.0212 22.7643 -0.407671 0.844759 0.346679
-30.1929 11.7122 21.4214 -0.414017 0.838326 0.354682
-27.9976 13.353 20.1552 -0.415781 0.832927 0.365181
-25.6877 15.0584 18.8558 -0.406094 0.833441 0.374784
-23.4767 16.7147 17.5333 -0.388785 0.836544 0.386057
-21.1184 18.4088 16.2248 -0.375127 0.832956 0.406772
-18.9335 20.0252 14.9032 -0.364376 0.834927 0.412464
-16.7356 21.6252 13.5948 -0.356428 0.835228 0.418752
-14.8627 23.2728 11.9035 -0.361062 0.832037 0.421129
-13.685 24.9368 9.65153 -0.380112 0.827853 0.412518
-13.3484 26.3947 6.93342 -0.410924 0.83359 0.369104
-13.9057 27.2215 4.00499 -0.455796 0.854913 0.247732
-14.4167 27.5328 0.902784 -0.48413 0.87175 0.0753021
-14.2377 27.6132 -2.18117 -0.452062 0.887184 -0.0919781
-13.5527 27.402 -5.09367 -0.417298 0.874953 -0.245599
-13.351 26.3801 -8.0091 -0.384613 0.841623 -0.379135
-14.0478 24.8394 -10.58 -0.36392 0.834801 -0.413118
-15.5588 23.1682 -12.6285 -0.350264 0.837312 -0.41979
-17.6265 21.539 -14.1765 -0.348541 0.840943 -0.413925
-19.9753 19.8945 -15.5522 -0.359274 0.843781 -0.398693
-22.2561 18.2674 -16.8699 -0.379836 0.841177 -0.384884
-24.5212 16.6538 -18.1458 -0.392032 0.840271 -0.374508
-26.836 14.9683 -19.4749 -0.405519 0.838998 -0.362818
-29.109 13.2855 -20.8388 -0.421221 0.833144 -0.358391
-31.2995 11.658 -22.0823 -0.423067 0.839146 -0.341832
-33.6396 9.95373 -23.4124 -0.427212 0.84266 -0.32774
-35.8897 8.28731 -24.7489 -0.434565 0.83948 -0.326232
-38.1408 6.6054 -26.0816 -0.439123 0.839633 -0.319667
-39.125 5.87192 -26.6564 -0.442595 0.839595 -0.314945
-8.16591 25.3851 -13.9891 -0.294137 0.813261 -0.502085
-7.34293 27.1615 -11.6352 -0.320715 0.812534 -0.486751
-7.1024 28.8313 -9.00239 -0.348403 0.804446 -0.481126
-7.44072 30.2076 -6.28683 -0.478647 0.774045 -0.414429
-8.06533 31.0684 -3.43508 -0.552353 0.801002 -0.230874
-8.60507 31.2044 -0.403773 -0.570673 0.820538 -0.0305786
-8.36575 30.9369 2.71291 -0.587503 0.767773 0.255267
-7.6191 30.1828 5.54644 -0.456055 0.783491 0.422086
-7.16437 28.8519 8.20538 -0.383819 0.774077 0.503467
-7.15769 27.2288 10.7773 -0.325111 0.796798 0.509326
-7.71664 25.4783 13.2266 -0.302536 0.81109 0.500605
-6.48425 26.5755 12.215 -0.298919 0.802639 0.516128
-4.45084 28.2443 10.777 -0.270924 0.797859 0.538536
-1.93979 29.7802 9.61235 -0.169917 0.780445 0.601692
0.834539 30.6816 8.88565 0.000704401 0.791331 0.611275
3.73603 30.9657 7.9037 0.250405 0.797278 0.548754
6.20492 30.9314 6.17071 0.457664 0.801752 0.384141
8.38217 30.3377 4.14126 0.536293 0.807494 0.245649
10.5733 29.1495 2.26203 0.585623 0.801983 0.117765
12.8562 27.6532 0.978294 0.569336 0.820671 0.0482018
15.2611 25.9371 0.268896 0.580004 0.814177 0.0265233
13.9049 26.9389 -0.41468 0.600262 0.799797 0.00333976
11.5144 28.6542 -1.48859 0.600663 0.799264 -0.0188641
9.37481 30.1452 -2.99711 0.611725 0.78333 -0.110378
7.29991 31.1491 -4.95433 0.522841 0.810216 -0.264928
5.03082 31.5427 -6.98244 0.366812 0.819463 -0.440374
2.34504 31.4785 -8.39341 0.130766 0.804372 -0.577665
-0.530821 30.8598 -9.2452 -0.0981296 0.795531 -0.597914
-3.15745 29.5891 -10.1755 -0.250168 0.791319 -0.55788
-5.47248 27.9568 -11.4462 -0.277613 0.808582 -0.518772
-7.36542 26.1845 -13.1811 -0.299991 0.806689 -0.509174
-8.05289 25.4802 -13.9012 -0.295593 0.812403 -0.502617
15.9377 25.4693 -0.0253321 0.572487 0.819617 0.0216144
15.9985 25.4268 -0.0292426 0.573092 0.819308 0.017305
16.6623 24.9604 0.0379737 0.572959 0.819294 0.0217483
16.669 24.9565 0.00968312 0.572379 0.819742 0.0201361
16.9853 24.7378 -0.0476565 0.568502 0.822417 0.0208441
17.0713 24.6767 0.0131366 0.568328 0.822511 0.0218859
17.5772 24.328 0.0515011 0.564306 0.825298 0.0210228
17.6376 24.2902 -0.084095 0.564307 0.825297 0.0210193
18.1011 23.9707 0.105038 0.560566 0.827848 0.0208152
20.401 22.4428 -0.554714 0.547548 0.836559 0.0185455
22.8594 20.8465 -1.53895 0.544836 0.838467 -0.010861
25.2009 19.2777 -2.85254 0.550993 0.833818 -0.0339756
27.4968 17.7059 -4.18906 0.548873 0.835021 -0.0384486
29.7788 16.1382 -5.49787 0.547477 0.834582 -0.0611207
32.0236 14.5922 -6.80036 0.536247 0.841019 -0.0715743
34.2612 13.0076 -8.04705 0.534057 0.837049 -0.118852
36.5382 11.345 -9.44367 0.535143 0.833981 -0.134529
38.8543 9.67551 -10.6934 0.527779 0.837919 -0.139072
41.2071 7.99604 -11.9495 0.513392 0.844132 -0.154499
43.5005 6.37389 -13.2285 0.506371 0.846535 -0.164216
45.3826 5.3672 -12.6118 0.504635 0.84848 -0.159455
46.3915 5.29404 -9.72 0.504424 0.850221 -0.1506
47.0815 5.26331 -6.79631 0.514388 0.852662 -0.0914991
47.4826 5.26256 -3.74473 0.511868 0.857323 -0.054664
47.6829 5.2617 -0.733904 0.518079 0.855063 -0.021422
47.7065 5.2329 2.34007 0.521502 0.853082 0.0169561
47.48 5.18869 5.43206 0.515361 0.853774 0.0739563
46.8961 5.22584 8.40013 0.508349 0.85334 0.115729
46.0876 5.27041 11.3064 0.507596 0.848233 0.151147
44.8671 5.47721 13.9648 0.506505 0.844412 0.174416
42.539 7.14259 12.6807 0.522532 0.837664 0.158908
40.1795 8.8358 11.3864 0.527235 0.838929 0.134978
37.9806 10.4077 10.0835 0.520111 0.84496 0.124608
35.7461 11.9495 8.80274 0.518206 0.846907 0.119208
33.488 13.5098 7.5456 0.525999 0.84461 0.0997976
31.2429 15.0644 6.27079 0.538954 0.837677 0.0883718
28.9763 16.6197 5.0205 0.531082 0.843212 0.0833321
26.7137 18.1691 3.72578 0.535061 0.84287 0.0570603
24.4578 19.7077 2.42161 0.544538 0.837032 0.0534329
22.159 21.2647 1.2008 0.54181 0.839996 0.0291032
19.7449 22.8591 0.329034 0.555361 0.831397 0.0187586
18.2719 23.8558 0.0762037 0.560566 0.827848 0.0208152
-8.92261 23.7112 15.4311 -0.294345 0.821378 0.488558
-8.95163 23.6477 15.5204 -0.29139 0.821695 0.489805
-9.293 23.1883 16.0931 -0.290659 0.827843 0.479785
-11.2141 21.5557 17.8373 -0.283762 0.839128 0.464048
-13.3609 19.9355 19.3892 -0.306059 0.836852 0.453876
-15.626 18.3921 20.709 -0.311701 0.839651 0.44478
-17.911 16.8205 22.0658 -0.313564 0.84491 0.433364
-20.2159 15.3053 23.388 -0.316578 0.85246 0.416028
-22.4885 13.7432 24.7007 -0.349529 0.838944 0.417135
-24.7061 12.1833 25.9877 -0.351709 0.843115 0.406766
-26.9085 10.6106 27.3378 -0.368051 0.846422 0.384848
-29.2652 8.96244 28.6883 -0.370315 0.84634 0.382851
-31.521 7.36454 29.9816 -0.372578 0.844135 0.385515
-33.8614 5.73597 31.3583 -0.370062 0.850707 0.373299
-33.3036 5.13493 33.3406 -0.366115 0.859447 0.356806
-31.0593 5.12186 35.5185 -0.342952 0.86121 0.375101
-28.7788 5.09285 37.4957 -0.301076 0.866346 0.398495
-26.371 5.04473 39.3558 -0.281638 0.863264 0.418874
-23.7674 5.0577 40.9818 -0.260378 0.863443 0.432053
-21.0963 5.09516 42.3944 -0.214028 0.861461 0.460518
-18.257 5.1557 43.5471 -0.190836 0.857014 0.478654
-15.2898 5.25505 44.4775 -0.155861 0.852332 0.499238
-12.2379 5.33283 45.2013 -0.126643 0.84719 0.515975
-10.2641 6.03751 44.5085 -0.107559 0.846071 0.522105
-10.2345 7.61933 41.9327 -0.115835 0.847174 0.518532
-10.2348 9.26679 39.2173 -0.138719 0.854381 0.50079
-10.2797 10.8413 36.5802 -0.16258 0.845314 0.508932
-10.2127 12.3983 34.0077 -0.167809 0.848683 0.501566
-10.1735 13.952 31.4388 -0.199987 0.829482 0.521484
-10.2109 15.5798 28.8258 -0.22799 0.833987 0.502462
-10.1888 17.1318 26.1626 -0.236078 0.839561 0.489291
-10.1307 18.7049 23.5093 -0.224975 0.840021 0.493711
-10.0351 20.2725 20.8497 -0.255705 0.84152 0.475876
-9.80933 21.7994 18.239 -0.272766 0.837376 0.473691
-9.26543 23.0909 16.278 -0.290664 0.828069 0.479392
-13.5764 15.2104 27.8005 -0.24897 0.842121 0.478378
-16.5097 14.533 27.4289 -0.259063 0.843183 0.471092
-19.5174 13.7242 26.9947 -0.315597 0.843245 0.435129
-19.7309 13.662 26.9619 -0.309871 0.847989 0.429993
-13.5389 12.347 32.8226 -0.215961 0.845104 0.48904
-16.483 11.7471 32.5054 -0.237814 0.85344 0.463773
-19.4567 11.076 32.1616 -0.266816 0.85251 0.449483
-22.3862 10.2712 31.7618 -0.318831 0.835995 0.446609
-25.3769 9.3288 31.3033 -0.327947 0.846843 0.418697
-26.7465 8.88688 31.0933 -0.340803 0.845324 0.411438
-25.0544 6.85141 36.5414 -0.309044 0.849578 0.427445
-22.1371 7.64002 36.9011 -0.279563 0.851771 0.443092
-19.1648 8.35477 37.2408 -0.232346 0.852443 0.468354
-16.2403 8.97433 37.5458 -0.223239 0.851788 0.473942
-13.7543 9.45435 37.7893 -0.168163 0.852827 0.494376
-5.51298 32.8113 3.03613 -0.474825 0.832085 0.286664
-2.63243 33.8382 3.23152 -0.269059 0.860859 0.431891
0.379966 34.3897 3.37909 0.00304159 0.914165 0.40533
3.35972 33.914 3.34827 0.379134 0.86097 0.339099
5.4449 32.8407 3.13553 0.555464 0.776792 0.296737
4.02009 33.3608 -4.17326 0.475952 0.817812 -0.323502
1.17223 34.2944 -4.3677 0.166117 0.924681 -0.342594
-1.83573 34.0855 -4.29014 -0.198132 0.925992 -0.321375
-4.72357 33.0016 -4.00847 -0.458947 0.811251 -0.362269
-4.94338 32.8886 -3.98373 -0.452747 0.815097 -0.361437
-13.642 18.2091 -23.6631 -0.263645 0.850454 -0.455212
-13.9248 18.1414 -23.6254 -0.264321 0.85035 -0.455015
-13.4968 15.5087 -28.7974 -0.228058 0.866639 -0.443763
-16.5028 14.8353 -28.4352 -0.26908 0.857957 -0.437614
-19.442 14.0688 -28.0287 -0.297324 0.853109 -0.428723
-21.0796 13.6076 -27.7871 -0.313026 0.850115 -0.423461
-28.1487 8.89632 -31.9853 -0.35527 0.850275 -0.388349
-25.1833 9.86025 -32.436 -0.314138 0.854009 -0.414713
-22.1604 10.7309 -32.8556 -0.288421 0.859651 -0.42168
-19.2005 11.5253 -33.2502 -0.28254 0.848896 -0.446707
-16.1085 12.2706 -33.632 -0.226069 0.851692 -0.472773
-13.6576 12.7136 -33.863 -0.178079 0.852133 -0.492095
-13.5969 9.78794 -38.8118 -0.162211 0.842963 -0.512933
-16.612 9.27931 -38.562 -0.206372 0.841991 -0.498459
-19.6752 8.65466 -38.2655 -0.233865 0.846561 -0.478165
-22.6561 7.9595 -37.9438 -0.269291 0.847608 -0.457212
-25.6081 7.16764 -37.5881 -0.295186 0.851673 -0.433034
-26.1237 7.02026 -37.5214 -0.301895 0.853184 -0.425367
34.1324 13.4496 -4.07386 0.535326 0.843195 -0.0494823
36.6836 11.8532 -4.03605 0.533632 0.843828 -0.0564939
39.2505 10.2687 -3.99503 0.517644 0.853668 -0.0574158
41.8635 8.67741 -3.94215 0.52351 0.85004 -0.0580468
44.5297 7.04182 -3.88783 0.519268 0.852627 -0.0581984
44.7276 7.01371 2.41291 0.509612 0.859902 0.0294011
42.1306 8.55609 2.44367 0.515358 0.856618 0.0247443
39.5591 10.1073 2.47478 0.525649 0.850152 0.0305604
36.8701 11.7834 2.5023 0.532436 0.846032 0.0272208
34.3296 13.3935 2.526 0.528655 0.847758 0.042786
31.7834 14.9858 2.54848 0.530276 0.846751 0.0426528
31.5497 15.1316 2.5505 0.5311 0.846449 0.0381582
42.4815 7.80891 8.79708 0.505073 0.856706 0.104669
43.7018 7.0958 8.74552 0.506146 0.855873 0.10629
43.7164 7.08723 8.74487 0.505459 0.856151 0.107316
